-0.006500 0.156918 0.035584
0.030000 0.115759 0.043765
0.017250 0.058855 0.059902
-0.015000 0.128616 0.098934
0.030000 0.129211 0.025343
-0.017000 0.151837 0.085550
0.051000 0.046307 0.039018
0.038250 0.126937 0.022933
-0.001500 0.124474 0.096557
-0.008000 0.169990 0.032510
-0.011500 0.072206 0.079227
-0.052500 0.161434 0.045601
-0.004750 0.090873 0.084613
-0.035750 0.146940 0.080758
-0.001250 0.146953 0.081717
0.014500 0.100061 0.065926
-0.003500 0.127256 0.099161
-0.052250 0.154868 0.040411
0.052250 0.076081 0.049972
0.021500 0.119961 0.043007
-0.016250 0.155241 0.078598
-0.016250 0.130650 0.098027
-0.005250 0.104290 0.081014
0.013500 0.097367 0.067244
0.064250 0.081400 0.028852
-0.011750 0.089636 0.086410
-0.044000 0.080342 0.060526
-0.016500 0.063042 0.067947
-0.028000 0.085997 0.082459
0.016750 0.090920 0.063650
0.020250 0.055205 0.050773
-0.050750 0.153503 0.043333
0.022250 0.117936 0.044911
-0.012750 0.037549 0.069190
0.043500 0.091101 0.055385
0.033500 0.071667 0.055839
0.069750 0.049797 -0.005423
0.047000 0.120494 0.024462
0.065750 0.074286 0.028221
0.039500 0.118178 0.035637
0.041000 0.073094 0.056321
0.040250 0.075242 0.057163
0.055000 0.045817 0.034075
-0.001250 0.045237 0.076135
0.008250 0.060628 0.064104
0.051750 0.115292 0.021148
0.038500 0.087136 0.058737
0.046250 0.100453 0.036631
-0.045000 0.150084 0.050800
0.019500 0.095664 0.061734
-0.071250 0.172016 0.009664
0.026750 0.123236 0.037165
0.036750 0.095823 0.052393
-0.026000 0.058008 0.043320
-0.048250 0.157884 0.049347
0.011500 0.126561 0.031063
-0.011750 0.178007 0.023357
-0.068250 0.170599 0.018169
-0.008000 0.110913 0.092708
-0.041250 0.091513 0.073113
-0.006500 0.072127 0.078267
0.014000 0.113438 0.054556
-0.033000 0.146294 0.084113
0.048750 0.060734 0.050183
0.041750 0.036732 0.049018
0.063750 0.099228 0.017934
-0.007750 0.145663 0.090437
-0.069250 0.163162 0.015263
-0.038000 0.088306 0.076467
-0.015000 0.051692 0.050653
-0.003250 0.167500 0.004506
-0.027750 0.129166 0.090665
-0.038500 0.160044 0.052220
0.019250 0.048774 0.056548
-0.003750 0.090820 0.083774
-0.003750 0.061973 0.063745
-0.014000 0.144979 0.092135
0.013500 0.080901 0.068197
-0.040500 0.155790 0.055344
0.029000 0.113065 0.046178
-0.025750 0.107066 0.081971
0.020250 0.119298 0.043895
-0.027750 0.043408 0.058846
-0.018750 0.129275 0.097461
0.041750 0.058053 0.051378
0.036750 0.063857 0.053908
-0.028000 0.059088 0.039772
-0.021250 0.142919 0.091909
0.012000 0.047442 0.063998
-0.037750 0.151046 0.075604
0.048000 0.092252 0.051313
0.047750 0.048981 0.044590
0.041500 0.065976 0.054271
-0.005750 0.092263 0.085091
0.027500 0.081493 0.057292
0.003750 0.125078 0.092478
0.067500 0.055078 -0.003275
-0.015500 0.097056 0.085687
0.056750 0.065623 0.042189
0.021000 0.087223 0.060054
0.072750 0.063372 -0.015170
0.047000 0.082670 0.054297
-0.023250 0.127862 0.094743
-0.023250 0.145662 0.089645
0.001500 0.114947 0.092367
-0.030000 0.103645 0.081732
-0.013000 0.160006 0.046620
0.064250 0.085380 0.025540
0.044750 0.122650 0.024337
-0.022000 0.070527 0.075388
-0.013750 0.082815 0.085217
-0.001250 0.164533 0.006885
-0.020750 0.118488 0.098594
-0.026250 0.119683 0.092932
-0.019500 0.088907 0.085572
-0.039250 0.149565 0.067697
0.056250 0.094864 0.038023
0.060250 0.083667 0.039666
0.027750 0.058031 0.051138
0.061500 0.092208 0.030767
0.030500 0.081570 0.058370
-0.061250 0.151762 0.030134
-0.043750 0.129982 0.068674
0.053000 0.083649 0.048308
-0.018500 0.135407 0.095760
0.019500 0.091539 0.062452
-0.041750 0.077187 0.064478
-0.011750 0.147038 0.090324
0.018750 0.111272 0.052999
0.016500 0.044272 0.060404
-0.000500 0.044609 0.076737
0.030750 0.120479 0.039069
0.031500 0.091168 0.056463
0.064250 0.076023 0.032160
0.020750 0.050042 0.055223
-0.036250 0.149708 0.080398
-0.009250 0.111627 0.093839
-0.009750 0.065398 0.071308
-0.042000 0.134985 0.073220
-0.001750 0.146961 0.082316
0.000500 0.076201 0.078266
-0.029000 0.138025 0.085312
0.041000 0.063129 0.053547
0.056500 0.090207 0.042217
-0.037000 0.121477 0.084717
0.043000 0.038551 0.046268
-0.009000 0.112311 0.094179
-0.019500 0.070628 0.076588
0.034250 0.079571 0.059446
-0.032500 0.116071 0.085558
-0.042750 0.163638 0.048008
0.030750 0.106888 0.049166
-0.014000 0.091644 0.086050
-0.001750 0.071218 0.075508
0.022750 0.072207 0.053921
-0.025500 0.094302 0.085090
0.052250 0.113858 0.021272
-0.049500 0.167190 0.043176
0.003500 0.128470 0.090099
-0.010250 0.185426 0.007485
-0.016000 0.121881 0.100520
0.005000 0.125830 0.047195
-0.019750 0.036781 0.062227
-0.040000 0.154384 0.056425
0.010000 0.096277 0.072274
-0.003750 0.057472 0.059900
-0.021750 0.090912 0.085211
-0.006250 0.041099 0.076265
-0.022500 0.079235 0.082462
-0.020250 0.085520 0.085335
-0.029250 0.148399 0.086629
0.046000 0.040781 0.040553
-0.021750 0.047076 0.053670
0.000250 0.115673 0.094065
0.055000 0.100818 0.031290
0.008500 0.039142 0.077351
0.011000 0.123971 0.037545
0.042250 0.093141 0.054428
-0.028250 0.131897 0.089306
0.013750 0.085874 0.070716
-0.031250 0.093505 0.083174
0.017250 0.068691 0.061712
-0.019750 0.117149 0.098594
0.014750 0.046557 0.062199
0.023500 0.122584 0.038564
0.018750 0.123248 0.037419
-0.005250 0.043763 0.075298
-0.025250 0.125098 0.093498
0.022000 0.126626 0.032587
-0.038500 0.111430 0.072631
-0.044750 0.091002 0.064968
-0.042250 0.076885 0.060522
-0.002750 0.052011 0.060863
0.024000 0.044298 0.060645
-0.036250 0.116675 0.083642
-0.024750 0.047088 0.053790
0.061000 0.067221 0.036351
0.000500 0.057034 0.062541
0.047500 0.117715 0.026362
-0.037250 0.105388 0.075625
0.014000 0.057022 0.062420
0.002500 0.048212 0.071443
-0.030500 0.143563 0.086150
0.043750 0.098319 0.047058
-0.034500 0.155808 0.058221
0.044000 0.043800 0.042321
-0.034000 0.103534 0.079577
-0.020750 0.133338 0.094515
0.042000 0.067398 0.054633
0.038500 0.110004 0.041981
-0.044000 0.133501 0.069509
0.022750 0.107101 0.053715
0.005500 0.125836 0.047322
-0.044750 0.124376 0.068440
0.045000 0.085549 0.055740
-0.018500 0.098401 0.085447
-0.033000 0.143531 0.084234
-0.032500 0.103583 0.080535
-0.032750 0.112468 0.080771
0.053000 0.079477 0.048660
0.021500 0.111866 0.050485
-0.025500 0.053930 0.044709
0.022000 0.048172 0.057510
0.005250 0.083578 0.076947
-0.032000 0.139378 0.083875
-0.031500 0.143545 0.085072
-0.011250 0.041772 0.069659
-0.013750 0.125229 0.100181
-0.005000 0.106290 0.080055
-0.016000 0.123215 0.100408
0.055000 0.040857 0.027489
0.006000 0.120264 0.089195
-0.004000 0.127260 0.099387
-0.031500 0.122976 0.089420
0.018750 0.075549 0.061120
-0.019500 0.048926 0.051142
-0.020750 0.068258 0.072749
-0.044000 0.093146 0.066046
0.060000 0.064519 0.037619
0.050500 0.079713 0.051896
0.049250 0.087375 0.051790
-0.009000 0.105063 0.082809
-0.037000 0.158615 0.054261
-0.014750 0.133378 0.097686
-0.012250 0.148414 0.089079
-0.013500 0.103756 0.083888
-0.007250 0.071418 0.077907
0.041250 0.053738 0.050050
-0.016250 0.136099 0.096553
-0.007000 0.091614 0.085570
0.016750 0.051710 0.057861
0.039000 0.035164 0.053946
0.028500 0.072970 0.054762
-0.033250 0.075011 0.071791
-0.033250 0.070520 0.067112
-0.007750 0.107043 0.081492
-0.045250 0.149361 0.049603
-0.012500 0.043843 0.056322
-0.024000 0.117721 0.095084
-0.038750 0.128942 0.081483
-0.018000 0.143609 0.092928
0.005750 0.060617 0.063984
0.047250 0.091624 0.052511
0.012500 0.126577 0.031444
-0.022250 0.074183 0.078507
0.035250 0.038006 0.060663
0.022500 0.081424 0.056333
-0.043250 0.130021 0.070111
0.031250 0.059504 0.051981
0.016250 0.049032 0.059069
-0.015000 0.077882 0.082462
0.029250 0.056658 0.051376
0.021250 0.079430 0.057529
-0.026000 0.045307 0.056918
0.018250 0.070012 0.060994
-0.006250 0.057231 0.057379
-0.040250 0.107838 0.069399
-0.001750 0.039951 0.078430
-0.053750 0.165020 0.043435
-0.038500 0.157206 0.055582
-0.063750 0.154556 0.025940
0.011000 0.071197 0.066992
0.058000 0.051610 0.034952
-0.042250 0.150816 0.052956
-0.033250 0.113918 0.082806
0.025500 0.113142 0.047576
-0.019000 0.113727 0.096329
-0.069250 0.161682 0.015393
0.025500 0.055891 0.050654
-0.018250 0.103088 0.084128
0.060250 0.073831 0.039657
-0.006000 0.119101 0.096443
-0.029250 0.075257 0.074909
-0.025000 0.046510 0.054993
-0.028250 0.120974 0.090554
0.000000 0.134022 0.094402
0.036500 0.091205 0.057062
-0.019000 0.169968 0.030099
0.046500 0.064321 0.051269
-0.007250 0.166147 0.016908
-0.065250 0.176554 0.028816
0.044750 0.049178 0.046617
-0.040000 0.076692 0.066996
-0.008750 0.108474 0.082928
-0.031500 0.133894 0.085792
0.050750 0.070551 0.050681
0.030250 0.128555 0.026995
0.017750 0.052873 0.055455
-0.028500 0.070226 0.071790
-0.039750 0.157907 0.054382
-0.055500 0.158364 0.036089
-0.020500 0.054331 0.048970
0.010750 0.103595 0.067364
0.003750 0.034425 0.078444
0.025750 0.066476 0.051993
0.026250 0.069344 0.052957
0.018250 0.058652 0.057741
0.050000 0.046357 0.039525
-0.022000 0.123156 0.097689
-0.044750 0.122994 0.068680
0.031250 0.079492 0.058368
-0.016750 0.127932 0.098821
0.047500 0.036209 0.037645
0.002750 0.110646 0.070476
0.003000 0.127135 0.092365
-0.007250 0.100341 0.083650
-0.023000 0.091591 0.085211
0.042750 0.043402 0.045366
0.033000 0.101959 0.049043
0.040000 0.057447 0.052337
0.030500 0.107580 0.048926
-0.041750 0.094047 0.069519
-0.008500 0.086186 0.085215
-0.062250 0.169300 0.036699
0.064250 0.069918 0.026700
0.044750 0.086252 0.055861
-0.051000 0.149882 0.041308
-0.018500 0.051668 0.050413
-0.012750 0.129304 0.099273
0.008000 0.072863 0.070591
-0.042000 0.125353 0.077415
-0.057750 0.161981 0.034431
-0.004250 0.137460 0.095760
0.042500 0.111176 0.037661
-0.031500 0.106261 0.079456
0.064000 0.051082 -0.000157
0.021750 0.127298 0.031442
0.013000 0.038390 0.070509
-0.020500 0.063010 0.067587
-0.024000 0.038810 0.061621
-0.009000 0.123191 0.099275
-0.017500 0.082114 0.084858
0.047250 0.115688 0.028772
-0.010750 0.082780 0.084737
-0.039000 0.139164 0.072977
-0.023250 0.085454 0.084376
-0.042750 0.116268 0.073229
0.016250 0.104592 0.059581
-0.013000 0.051692 0.050653
0.018500 0.073448 0.060758
0.026250 0.036900 0.063308
-0.053750 0.154832 0.038761
0.005750 0.103924 0.073829
0.038750 0.116162 0.037921
0.000750 0.127878 0.095649
0.046750 0.079192 0.054292
-0.030250 0.125027 0.089873
0.057000 0.072122 0.044355
-0.023750 0.155245 0.079197
0.035500 0.054648 0.052213
-0.046500 0.150062 0.048763
0.018750 0.089471 0.062692
-0.011500 0.110929 0.093160
0.060250 0.056434 0.033812
0.004500 0.095278 0.078622
0.026250 0.108376 0.050962
0.036500 0.084432 0.059692
-0.017500 0.066093 0.071428
0.009000 0.068399 0.066390
-0.040000 0.107200 0.070476
-0.007500 0.169987 0.032129
0.031000 0.107557 0.048448
-0.071000 0.177282 0.027292
0.049500 0.114812 0.025721
0.071500 0.054363 -0.010296
-0.051500 0.161447 0.046363
0.033500 0.085759 0.058855
0.026500 0.041733 0.062814
-0.011250 0.074376 0.080905
0.035750 0.063836 0.053668
-0.012750 0.080010 0.083780
-0.027000 0.062553 0.062546
-0.008250 0.057139 0.056418
0.008250 0.037081 0.077477
-0.035500 0.113135 0.080412
0.006000 0.065576 0.065548
-0.059500 0.159728 0.030755
-0.021250 0.117117 0.097462
0.046500 0.112366 0.033468
-0.037750 0.116615 0.082086
-0.007500 0.059569 0.060142
-0.014250 0.166438 0.040893
0.017000 0.114708 0.051324
-0.070750 0.175085 0.028185
0.045000 0.042357 0.042071
0.004000 0.057138 0.063621
-0.035000 0.143506 0.082676
0.043750 0.059504 0.051981
-0.035750 0.123568 0.086272
0.013250 0.123300 0.038562
0.023500 0.040324 0.062698
-0.027750 0.112551 0.082687
-0.000250 0.111453 0.088860
-0.007250 0.125216 0.099502
-0.044000 0.108079 0.059701
0.034250 0.103995 0.047698
-0.024250 0.123772 0.095084
-0.038500 0.078301 0.070114
0.019750 0.078295 0.060883
-0.031500 0.108967 0.078857
0.005000 0.068573 0.068430
-0.040000 0.152976 0.057027
-0.014250 0.173633 0.030598
0.055750 0.104138 0.027227
0.025000 0.115859 0.045672
-0.039250 0.152278 0.057987
0.020250 0.081119 0.061725
0.022000 0.074408 0.055364
0.027000 0.087010 0.056820
-0.038000 0.137826 0.075732
0.013250 0.060561 0.063384
-0.021750 0.145663 0.090324
0.063000 0.102524 0.012856
0.002500 0.039327 0.079032
0.044500 0.049945 0.047249
0.011250 0.094184 0.071795
-0.018250 0.122542 0.100181
0.060750 0.096908 0.026323
0.064500 0.073686 0.029492
-0.034000 0.068113 0.063031
0.036000 0.073142 0.056920
0.013750 0.056321 0.062300
-0.011500 0.098374 0.084968
-0.008000 0.086178 0.085095
0.006250 0.099888 0.075387
0.046000 0.096320 0.048801
0.063750 0.046036 0.000120
0.047250 0.108816 0.033718
0.015000 0.082075 0.065441
-0.036750 0.145505 0.077405
-0.043750 0.157899 0.052464
-0.000750 0.145587 0.083035
-0.029250 0.145652 0.087468
-0.018250 0.117165 0.099160
-0.011250 0.162109 0.042554
-0.013000 0.106466 0.083647
0.052250 0.089959 0.048318
0.038750 0.114796 0.038936
-0.059250 0.153259 0.032543
-0.021250 0.155248 0.079557
0.009000 0.069814 0.066871
0.040500 0.034778 0.050465
0.063250 0.101830 0.013363
-0.007750 0.129317 0.100066
0.065250 0.050305 -0.000695
0.047750 0.044009 0.037375
0.008250 0.117054 0.057669
-0.014250 0.045734 0.054275
-0.060250 0.150329 0.030517
-0.062500 0.162598 0.026941
0.071250 0.055404 -0.007192
0.067500 0.072435 0.014498
-0.004500 0.149047 0.083154
0.010000 0.117689 0.055994
0.044500 0.120573 0.026113
0.040250 0.111978 0.039314
-0.029750 0.144268 0.087109
-0.007000 0.172889 0.028823
-0.022750 0.062049 0.064586
0.069250 0.049942 -0.004073
0.043500 0.098921 0.045532
0.059250 0.039260 0.018993
0.042000 0.061694 0.053065
-0.022750 0.099060 0.085088
-0.008000 0.125902 0.099728
0.052250 0.108284 0.024565
-0.004250 0.104272 0.080655
-0.018750 0.040764 0.060295
-0.012250 0.082797 0.084977
0.035750 0.065280 0.054270
-0.030250 0.138708 0.084953
0.015500 0.086243 0.066044
-0.070250 0.180952 0.022844
-0.029250 0.042085 0.059570
-0.035000 0.071158 0.066512
-0.014500 0.164289 0.042929
-0.010500 0.092995 0.085929
0.061500 0.065625 0.034193
-0.038750 0.088963 0.076108
0.053250 0.070404 0.048882
0.025500 0.060102 0.050902
0.010250 0.109032 0.065328
0.000500 0.113580 0.091802
-0.037500 0.097972 0.077902
0.049000 0.096179 0.046675
0.005750 0.073711 0.072630
-0.023750 0.097708 0.085208
0.039250 0.049435 0.049219
-0.054000 0.165738 0.042926
-0.005500 0.165371 0.014117
-0.012250 0.111670 0.095084
-0.007750 0.101676 0.083170
0.000000 0.121776 0.095990
0.050500 0.052600 0.045467
-0.010000 0.105087 0.083289
0.001000 0.095398 0.080658
-0.020500 0.055753 0.049213
0.009750 0.047006 0.066522
0.002250 0.123762 0.094631
0.058250 0.098589 0.030015
0.052750 0.078804 0.049018
0.002500 0.080294 0.078505
0.069000 0.052150 -0.003673
0.063750 0.058403 0.024427
-0.014750 0.082815 0.085217
0.028000 0.048160 0.057390
-0.022750 0.096362 0.085448
0.058500 0.100636 0.028492
-0.042500 0.152948 0.053791
0.029000 0.049390 0.055705
0.026500 0.111784 0.048570
0.029750 0.109643 0.047955
-0.000750 0.066703 0.070589
-0.025250 0.096341 0.085089
0.041750 0.098354 0.047567
-0.016250 0.170736 0.034285
-0.009500 0.139512 0.095646
0.054000 0.042383 0.028375
-0.003750 0.121118 0.096556
0.019250 0.038190 0.062343
-0.044750 0.088369 0.067003
-0.060250 0.163395 0.031255
-0.005250 0.047768 0.060394
-0.026750 0.081140 0.080783
-0.005750 0.062060 0.064706
0.037750 0.106581 0.043885
0.035500 0.087152 0.058976
-0.018000 0.131322 0.097234
0.026000 0.070051 0.053078
0.035250 0.105286 0.045791
-0.037750 0.073181 0.066034
-0.039750 0.150863 0.057629
-0.010250 0.163522 0.040012
0.023000 0.036122 0.062589
-0.038500 0.097911 0.076825
0.024750 0.096194 0.058860
-0.033250 0.039131 0.058138
-0.045250 0.097863 0.063771
-0.019500 0.135402 0.095307
-0.006500 0.079235 0.082462
-0.017000 0.072166 0.078747
-0.047750 0.165056 0.046100
-0.006000 0.113643 0.093726
-0.041000 0.107103 0.068441
-0.038750 0.119341 0.082085
0.051250 0.057423 0.044587
-0.007750 0.166158 0.017796
0.039750 0.080964 0.059568
0.052250 0.092674 0.046927
-0.017750 0.052372 0.050411
0.047500 0.084028 0.053820
-0.054250 0.167895 0.041398
0.049750 0.111364 0.028256
0.002000 0.058470 0.063142
-0.014500 0.147726 0.089871
-0.008250 0.149766 0.085551
-0.017000 0.127254 0.099048
-0.018750 0.113030 0.095537
0.012500 0.089349 0.071556
0.044500 0.057276 0.050536
0.054250 0.088378 0.046034
-0.032000 0.095527 0.082814
-0.040500 0.119933 0.079572
0.034000 0.088483 0.058139
0.032000 0.107524 0.047827
0.058000 0.044623 0.022033
-0.021500 0.127213 0.096782
0.000500 0.135365 0.091797
0.024500 0.064321 0.051269
0.026750 0.053821 0.050890
-0.059750 0.160458 0.030626
0.004500 0.036591 0.079279
-0.021000 0.101080 0.084727
-0.018500 0.079298 0.083301
-0.034000 0.041051 0.056451
-0.043000 0.109579 0.062096
0.014000 0.100080 0.066286
0.028500 0.115792 0.044401
0.015500 0.058288 0.061221
0.026750 0.075093 0.055245
0.062500 0.098842 0.023020
0.034000 0.046759 0.057395
-0.014000 0.042619 0.058007
0.063000 0.101363 0.017431
-0.016750 0.153881 0.082194
-0.044250 0.093853 0.066285
-0.007000 0.156946 0.036980
-0.020500 0.101080 0.084727
0.024750 0.063613 0.051148
-0.039250 0.106568 0.071674
0.041500 0.127487 0.018741
-0.006000 0.045600 0.073011
-0.017500 0.097056 0.085687
-0.022750 0.078495 0.081623
0.017250 0.088134 0.063410
0.023750 0.084928 0.056817
-0.050750 0.152102 0.044478
0.045000 0.043619 0.040546
0.016000 0.105270 0.059222
0.061000 0.070101 0.037114
-0.001500 0.160966 0.016917
-0.014500 0.161442 0.046109
0.067750 0.066806 0.006891
0.038000 0.080298 0.059927
-0.018250 0.147038 0.090550
-0.001250 0.148269 0.076205
0.009750 0.063405 0.064347
0.057500 0.036050 0.022800
-0.011250 0.147038 0.090211
-0.035500 0.093990 0.079940
0.064750 0.081349 0.028216
-0.024000 0.106425 0.082809
0.026000 0.071482 0.053560
0.025750 0.063634 0.051388
-0.019750 0.057929 0.050058
0.029000 0.108986 0.048927
-0.051250 0.167904 0.042286
-0.036500 0.102079 0.077901
0.000500 0.106138 0.076942
0.012750 0.119608 0.050968
0.037000 0.087144 0.058856
0.021500 0.114550 0.047577
0.058250 0.046528 0.019370
-0.018750 0.058595 0.057140
-0.063000 0.155296 0.026701
0.042750 0.053703 0.049689
0.049750 0.048821 0.042942
-0.043500 0.165760 0.044702
0.051500 0.079591 0.050218
-0.008500 0.082062 0.084139
-0.025750 0.100380 0.084368
0.036750 0.090529 0.057421
0.040500 0.067439 0.055113
0.039500 0.108588 0.041980
0.000000 0.128581 0.096782
-0.056000 0.152651 0.037368
0.024000 0.081416 0.056213
-0.019750 0.085520 0.085335
-0.010250 0.103057 0.083529
-0.039500 0.073591 0.062557
0.017750 0.128550 0.026868
-0.015750 0.044506 0.055960
0.050750 0.063390 0.048628
0.038250 0.058211 0.053059
-0.001500 0.095470 0.081855
0.008250 0.053719 0.063981
-0.026750 0.057120 0.041291
-0.023000 0.070487 0.074908
-0.038750 0.162198 0.049457
0.033500 0.081647 0.059449
0.050000 0.068356 0.049477
-0.024750 0.108429 0.081970
-0.012500 0.057924 0.057380
-0.004500 0.059580 0.060262
0.031500 0.041605 0.061613
0.067250 0.057188 -0.003821
0.040500 0.104334 0.041849
-0.020750 0.108463 0.082688
0.045000 0.105508 0.037908
-0.012250 0.052396 0.050651
0.043000 0.061650 0.052584
0.034500 0.074567 0.057402
0.044750 0.083424 0.055137
0.013250 0.080276 0.069036
0.036000 0.100424 0.046932
-0.008750 0.104382 0.082810
0.001250 0.083909 0.081621
-0.025750 0.121053 0.093838
0.051750 0.077478 0.049974
-0.004750 0.092233 0.084612
0.071500 0.064285 -0.013148
0.005750 0.062005 0.064106
0.067750 0.076571 0.021608
0.032500 0.071638 0.055479
-0.015750 0.086917 0.086053
-0.009500 0.162790 0.039633
-0.016750 0.141558 0.094400
0.067750 0.071224 0.008528
0.017500 0.062390 0.060746
0.026250 0.073646 0.054523
-0.023500 0.079189 0.081862
-0.024000 0.151834 0.085191
-0.060250 0.158973 0.029487
-0.015250 0.122550 0.100521
-0.028750 0.094932 0.084251
0.020500 0.102422 0.058024
-0.016750 0.107129 0.083288
-0.002500 0.104900 0.079577
-0.022500 0.124479 0.096783
0.064000 0.076760 0.032542
0.001500 0.104774 0.077062
-0.049250 0.162189 0.047630
0.035750 0.127039 0.025346
-0.018250 0.092301 0.085690
0.058750 0.109172 0.014907
-0.021750 0.056372 0.048374
-0.034000 0.074251 0.070831
-0.038000 0.140570 0.073575
-0.036000 0.100768 0.078979
0.043250 0.050796 0.048734
-0.045500 0.083040 0.059570
-0.010250 0.140194 0.095306
-0.018000 0.139506 0.094853
0.008500 0.043084 0.075420
-0.024500 0.146349 0.088966
-0.011250 0.123876 0.100068
-0.051500 0.171482 0.036313
0.055500 0.084840 0.045647
0.011250 0.127222 0.029664
0.043500 0.057299 0.050777
0.045000 0.095017 0.050596
-0.002000 0.151729 0.074286
-0.029500 0.117525 0.088064
0.052500 0.068201 0.047650
-0.032250 0.092113 0.082695
0.025250 0.077909 0.055728
-0.045500 0.087492 0.064128
0.059000 0.077354 0.039788
0.010750 0.091438 0.071915
0.016500 0.041566 0.061253
-0.035250 0.138621 0.080642
-0.019750 0.131987 0.095875
0.055750 0.068572 0.043842
-0.036500 0.113100 0.079574
-0.000500 0.088749 0.083176
-0.029750 0.067701 0.066270
0.056250 0.064331 0.043456
-0.041000 0.111089 0.064850
0.052750 0.081559 0.048424
0.035000 0.122407 0.034753
-0.027500 0.151824 0.084232
0.003000 0.111299 0.069638
-0.013750 0.169304 0.037080
-0.001000 0.106185 0.077900
-0.030500 0.098278 0.083292
-0.001500 0.123127 0.096330
-0.004000 0.046911 0.072287
0.049000 0.092201 0.050475
-0.025000 0.140845 0.089532
-0.009500 0.124536 0.099615
-0.026750 0.088113 0.083776
0.035750 0.108062 0.045030
0.023750 0.066465 0.051873
-0.012500 0.167146 0.039369
0.042750 0.082280 0.058611
-0.006500 0.106320 0.080654
0.029000 0.104884 0.051320
-0.013500 0.036748 0.068232
-0.037750 0.083340 0.073591
-0.016250 0.049630 0.051140
0.065000 0.048192 -0.000284
0.009000 0.109747 0.065807
0.008000 0.101718 0.071076
0.034750 0.087821 0.058618
-0.070000 0.165360 0.013229
-0.009250 0.130677 0.099839
0.062750 0.098105 0.022764
0.023250 0.107085 0.053356
-0.022000 0.119137 0.097802
-0.017000 0.084871 0.085695
-0.073500 0.180215 0.022211
0.003500 0.073213 0.074909
0.011500 0.071178 0.066752
0.057750 0.074012 0.041817
0.007250 0.083518 0.076108
-0.067750 0.175095 0.030342
0.041000 0.065986 0.054391
-0.037500 0.089729 0.077426
0.024750 0.080722 0.056212
0.029500 0.082931 0.058013
0.017750 0.114016 0.051563
0.020000 0.050635 0.054140
-0.009000 0.154525 0.075602
0.042000 0.055868 0.050414
0.043250 0.097036 0.049041
-0.008250 0.125218 0.099615
-0.000750 0.061907 0.063025
-0.007750 0.164726 0.021352
0.004250 0.041307 0.078186
-0.017000 0.079307 0.083421
0.038250 0.097077 0.049759
0.041250 0.036837 0.049978
-0.033500 0.131146 0.086271
-0.000500 0.048960 0.065195
0.043000 0.119385 0.031192
-0.042500 0.079155 0.063162
0.059750 0.075268 0.040040
0.058000 0.040440 0.023431
0.039000 0.093862 0.054788
-0.020000 0.127231 0.097802
0.064750 0.062053 0.017697
0.000500 0.065871 0.068908
0.039750 0.102252 0.042482
0.039750 0.075251 0.057283
0.038500 0.093862 0.054788
-0.014750 0.175081 0.027423
-0.006250 0.081334 0.083420
-0.024000 0.147726 0.088513
0.001750 0.117016 0.093952
0.026750 0.127271 0.030808
0.002250 0.121072 0.094631
-0.011500 0.075082 0.081265
0.048000 0.108043 0.032700
-0.021000 0.057162 0.049336
-0.007500 0.120489 0.098255
-0.028500 0.116147 0.087473
-0.033250 0.146984 0.083993
0.003750 0.061983 0.063866
-0.026500 0.099693 0.084249
-0.031750 0.044443 0.055360
-0.019500 0.158598 0.050065
0.050000 0.052623 0.045720
-0.022500 0.045282 0.056678
0.042750 0.120063 0.030431
-0.015000 0.162867 0.044709
0.052000 0.093351 0.046546
-0.013500 0.054484 0.050531
-0.012500 0.128624 0.099387
0.026500 0.121212 0.039578
-0.035250 0.144192 0.082317
0.050750 0.118125 0.020138
0.034000 0.053218 0.051850
0.015250 0.102069 0.064609
-0.000750 0.090766 0.082936
-0.018000 0.064575 0.069748
-0.033500 0.125680 0.088060
0.043000 0.058785 0.051740
-0.013750 0.145665 0.091569
-0.023500 0.088844 0.084614
0.012250 0.112903 0.058506
0.060500 0.075876 0.038897
0.011000 0.075581 0.070352
-0.014000 0.175812 0.026660
0.005000 0.074556 0.074669
-0.005000 0.138142 0.095533
0.024500 0.118572 0.043514
-0.004000 0.103602 0.080894
0.016750 0.111339 0.054555
0.054250 0.040244 0.028504
0.067000 0.053719 -0.002461
-0.016500 0.150474 0.087228
-0.011750 0.097701 0.085088
0.038000 0.063140 0.053667
0.003000 0.067284 0.069389
0.009500 0.121742 0.051806
-0.016500 0.117853 0.099839
-0.009000 0.087567 0.085693
0.012750 0.115504 0.053719
0.032250 0.127174 0.028521
-0.031000 0.120258 0.088969
-0.018000 0.155926 0.077039
-0.026000 0.109094 0.081611
0.009250 0.090222 0.074431
0.031750 0.078088 0.058126
-0.010250 0.065388 0.071188
0.005000 0.073048 0.072870
0.035750 0.068154 0.055354
0.054750 0.060238 0.044718
0.062250 0.068995 0.032415
0.049250 0.092860 0.049757
-0.004500 0.077772 0.081024
0.041750 0.061008 0.053183
0.000000 0.037985 0.079395
-0.010000 0.075082 0.081265
0.067500 0.049425 -0.002179
-0.047250 0.156467 0.050069
-0.040250 0.088838 0.074191
-0.009500 0.142240 0.093720
-0.018250 0.044569 0.056560
0.015500 0.090332 0.065327
0.009500 0.119031 0.054438
-0.026250 0.081193 0.081502
0.034750 0.119034 0.038560
-0.019500 0.142238 0.093154
0.011500 0.050158 0.063270
0.044000 0.065758 0.051752
-0.068000 0.169867 0.018932
0.005000 0.120326 0.091687
0.005750 0.079462 0.076468
0.029000 0.085670 0.057537
0.004750 0.095926 0.078023
0.069750 0.055622 -0.005032
-0.012500 0.097028 0.085208
0.040000 0.053135 0.051009
-0.032000 0.100924 0.081853
-0.025250 0.063426 0.064587
-0.013750 0.113079 0.097008
-0.001500 0.055537 0.061338
0.020500 0.099717 0.059580
-0.013250 0.122547 0.100407
-0.020000 0.099740 0.085087
0.009750 0.045802 0.068327
-0.032750 0.119551 0.087830
-0.014500 0.090286 0.086050
0.050750 0.100237 0.033324
0.043000 0.120705 0.028908
0.057250 0.047933 0.033818
0.022500 0.110492 0.051203
-0.023500 0.149103 0.087827
-0.030250 0.104302 0.081253
0.047500 0.062894 0.050907
0.001000 0.135346 0.089985
0.006000 0.107223 0.070955
0.035500 0.064553 0.053909
0.037250 0.040557 0.058374
0.003750 0.046469 0.074690
0.010750 0.056460 0.063741
-0.004500 0.161073 0.023517
-0.008750 0.099026 0.084489
0.024250 0.048786 0.056668
0.024500 0.111795 0.048809
0.044250 0.110401 0.036516
0.016500 0.077885 0.064599
0.029000 0.077287 0.056687
-0.035750 0.157913 0.055581
-0.000500 0.159505 0.018062
0.061000 0.053626 0.026334
0.018000 0.094331 0.062692
0.065000 0.043442 -0.003396
-0.020500 0.091606 0.085451
-0.037250 0.124888 0.084716
0.038250 0.038948 0.056457
-0.000500 0.079081 0.080424
0.016000 0.043206 0.063530
-0.017000 0.162872 0.045090
0.021750 0.115207 0.046688
0.015500 0.108012 0.058265
0.020750 0.115227 0.047069
0.051500 0.106281 0.027103
-0.066250 0.158821 0.021110
0.043500 0.116644 0.033475
0.035750 0.049545 0.050299
0.061000 0.094765 0.026447
-0.014000 0.040104 0.060657
0.067250 0.069906 0.009803
-0.045000 0.103998 0.061616
-0.009000 0.153170 0.079917
0.006500 0.057161 0.063861
0.022500 0.036122 0.062589
0.001250 0.076871 0.078146
-0.057250 0.163544 0.041535
-0.009500 0.105075 0.083049
0.058500 0.066125 0.039905
0.038000 0.064595 0.054389
0.007500 0.069834 0.067111
-0.031750 0.073701 0.072510
0.001500 0.095391 0.080538
-0.002250 0.163120 0.012344
-0.002250 0.140172 0.091796
0.002750 0.055046 0.063379
0.046500 0.084086 0.054659
-0.045250 0.086827 0.064487
-0.038000 0.104678 0.075146
0.019250 0.074092 0.060159
-0.020250 0.157889 0.050426
-0.014250 0.140195 0.095419
0.008000 0.043135 0.075900
-0.023500 0.087486 0.084495
-0.016500 0.098401 0.085447
0.000750 0.054964 0.062538
-0.012000 0.042593 0.057767
-0.027500 0.041424 0.059932
-0.042500 0.102910 0.067483
0.002500 0.052974 0.063503
0.028250 0.044984 0.060522
-0.010500 0.076492 0.081984
-0.001500 0.143576 0.086989
-0.010500 0.079298 0.083301
0.017500 0.046845 0.058235
-0.000750 0.043956 0.077099
-0.022500 0.109128 0.082329
0.026000 0.037611 0.063426
-0.001750 0.078412 0.080544
0.011000 0.118996 0.053481
-0.011500 0.105099 0.083528
-0.042000 0.092111 0.071675
0.061500 0.075728 0.037117
0.014750 0.085662 0.067601
0.002000 0.133967 0.089759
0.001500 0.121755 0.095084
0.008250 0.110434 0.065688
0.033750 0.053927 0.051971
0.056000 0.087515 0.043997
-0.024250 0.063610 0.066627
0.004000 0.050341 0.065071
0.010500 0.126572 0.031317
-0.002500 0.067544 0.072388
-0.011750 0.123876 0.100068
0.049000 0.098638 0.041335
-0.016000 0.097056 0.085687
0.000000 0.095427 0.081137
0.015750 0.063243 0.062547
-0.005250 0.096306 0.084490
0.067250 0.091562 0.011810
-0.019000 0.127242 0.098368
0.050500 0.035730 0.033204
0.040000 0.107180 0.042106
0.048750 0.070620 0.051520
-0.022250 0.151155 0.086389
-0.003500 0.036538 0.078799
0.023250 0.097608 0.059220
-0.015000 0.050321 0.051018
0.004000 0.049107 0.066636
0.052500 0.053906 0.044455
0.029500 0.085686 0.057777
0.023250 0.046245 0.059198
-0.068250 0.158761 0.017810
0.021750 0.094913 0.060776
-0.038250 0.103985 0.075027
-0.010750 0.119868 0.100180
0.018750 0.083981 0.063166
-0.038000 0.095171 0.076825
-0.012000 0.099720 0.084728
-0.051250 0.150625 0.042450
-0.012250 0.104424 0.083648
-0.027000 0.087414 0.083417
-0.071500 0.175814 0.027168
0.065750 0.090824 0.021604
0.044750 0.110365 0.035881
0.065250 0.057703 0.016691
-0.021750 0.108457 0.082569
-0.011500 0.177275 0.025008
0.019250 0.109923 0.054195
0.045500 0.113786 0.033343
0.043000 0.116664 0.033856
0.054250 0.065946 0.045869
0.029250 0.043650 0.061127
0.003000 0.092675 0.080779
-0.032750 0.115358 0.084720
-0.021750 0.040815 0.060775
-0.007000 0.072147 0.078507
-0.013250 0.044493 0.055840
-0.030500 0.066900 0.064950
0.058250 0.093252 0.035349
0.039750 0.069583 0.055836
0.045750 0.055008 0.048732
0.013000 0.040986 0.068820
0.043750 0.095713 0.050477
0.040500 0.048694 0.048861
-0.056250 0.159076 0.035199
-0.016000 0.132693 0.097573
0.012000 0.085330 0.072753
-0.007500 0.171438 0.030730
0.012000 0.125271 0.034494
0.005000 0.123021 0.091459
0.039250 0.098354 0.047567
0.046000 0.042122 0.039789
0.002500 0.050305 0.064711
-0.019000 0.125887 0.098935
0.033250 0.080947 0.059328
0.009250 0.109076 0.066286
0.002750 0.049693 0.065554
-0.023750 0.075560 0.078746
-0.029750 0.085221 0.081021
-0.027000 0.131224 0.090325
0.053000 0.089170 0.047180
-0.008250 0.133392 0.098818
0.018750 0.100471 0.060658
-0.009750 0.162071 0.040142
-0.060250 0.160447 0.029992
-0.018750 0.062225 0.066506
-0.003500 0.104924 0.080056
-0.053000 0.154146 0.040158
-0.021500 0.092965 0.085450
-0.006250 0.089566 0.085332
-0.012000 0.129988 0.099386
0.026250 0.117865 0.043513
-0.027250 0.083900 0.081501
-0.018250 0.141556 0.093947
-0.013750 0.096362 0.085448
0.015750 0.086779 0.063768
0.027000 0.102219 0.054072
-0.020750 0.131973 0.094855
-0.031500 0.131184 0.087708
0.010250 0.090161 0.073472
0.027500 0.041720 0.062694
-0.022750 0.105762 0.083169
-0.045500 0.086082 0.063647
-0.011500 0.119200 0.100180
0.028250 0.102858 0.052875
0.042500 0.057299 0.050777
-0.016500 0.158598 0.050065
0.045250 0.088981 0.055025
0.036750 0.047026 0.053190
0.021250 0.055135 0.050052
-0.000500 0.090093 0.083056
-0.025250 0.101727 0.084128
-0.009750 0.063815 0.068907
-0.008500 0.067720 0.074428
0.021000 0.125276 0.034621
0.038250 0.116182 0.038302
0.016750 0.128492 0.025471
0.060750 0.057369 0.028613
-0.003250 0.133378 0.097686
0.029250 0.053868 0.051371
-0.016500 0.095704 0.085808
0.000250 0.144064 0.074171
0.046750 0.123850 0.018746
-0.016250 0.040751 0.060174
-0.045250 0.153619 0.049116
-0.042750 0.078358 0.061722
0.010500 0.057161 0.063861
0.033000 0.114291 0.042748
-0.028000 0.107685 0.080653
0.034750 0.123097 0.034117
-0.036000 0.039481 0.054894
-0.038000 0.139197 0.074653
0.027000 0.117185 0.044021
-0.007000 0.059558 0.060022
0.059000 0.081732 0.041826
-0.020000 0.124520 0.098822
0.047500 0.061509 0.051024
-0.020250 0.126553 0.098028
-0.009750 0.104400 0.083169
0.044750 0.095685 0.049998
-0.039500 0.155795 0.056064
0.046250 0.108868 0.034607
-0.023500 0.099726 0.084848
0.000250 0.065090 0.067828
-0.029500 0.113247 0.083045
-0.003000 0.132698 0.097913
0.062750 0.087440 0.033814
0.030500 0.061585 0.051864
-0.014000 0.066146 0.072028
-0.028750 0.096285 0.084131
0.038000 0.074567 0.057402
-0.008250 0.075759 0.081264
0.000000 0.080472 0.080903
-0.058000 0.152589 0.034702
0.065000 0.069082 0.025176
-0.001000 0.051457 0.062306
0.025250 0.066465 0.051873
0.008500 0.123107 0.050610
-0.010750 0.140194 0.095306
-0.039000 0.158613 0.053901
0.045250 0.101925 0.037395
-0.035250 0.090597 0.080300
-0.039250 0.071080 0.057157
0.040000 0.093848 0.054548
-0.050250 0.162179 0.046996
-0.013000 0.057959 0.057740
-0.008250 0.099020 0.084369
-0.003250 0.037215 0.078677
0.063750 0.070329 0.031526
-0.049750 0.150688 0.044989
-0.001750 0.119761 0.095990
0.037750 0.072429 0.056680
0.007000 0.111142 0.066047
-0.027500 0.109056 0.080772
0.049750 0.051917 0.045722
-0.000500 0.092765 0.082216
-0.002500 0.151738 0.075244
-0.058000 0.156858 0.032537
-0.005250 0.094960 0.084730
0.040750 0.109222 0.040709
0.008250 0.094385 0.075149
0.003500 0.100677 0.077303
-0.036250 0.089088 0.078025
-0.011000 0.159968 0.044463
0.063000 0.083609 0.029996
0.055750 0.084140 0.045645
0.060500 0.046663 0.013288
-0.009750 0.038119 0.074352
-0.006250 0.152468 0.078959
0.021500 0.062947 0.051507
-0.034250 0.123614 0.087708
0.010500 0.037520 0.075194
-0.033000 0.071395 0.069391
0.000250 0.146851 0.074169
-0.021250 0.122506 0.098595
-0.024000 0.084754 0.084017
-0.019250 0.095025 0.085808
0.051750 0.069005 0.048879
0.029250 0.127244 0.030173
-0.050750 0.170769 0.038092
0.044000 0.057299 0.050777
0.038750 0.046507 0.048147
-0.004750 0.164626 0.013865
0.024750 0.048774 0.056548
-0.046000 0.127790 0.065445
0.003500 0.129368 0.071787
0.029750 0.094498 0.053710
-0.043000 0.098883 0.069639
-0.034750 0.123603 0.087349
-0.040750 0.135709 0.074416
-0.035750 0.083502 0.075868
0.038250 0.093205 0.055506
0.009000 0.105681 0.067603
0.048500 0.113567 0.029277
-0.012000 0.083480 0.085097
-0.013500 0.106460 0.083527
0.052500 0.071191 0.049962
0.059500 0.044259 0.018357
0.051500 0.072645 0.050685
-0.046000 0.091613 0.063650
0.013750 0.068955 0.064831
-0.047250 0.165056 0.046100
-0.009000 0.146350 0.090324
-0.019750 0.040790 0.060535
0.054750 0.108174 0.022658
0.046750 0.053490 0.047495
0.050250 0.097999 0.042351
0.046500 0.058673 0.050539
0.014500 0.071049 0.065193
0.012500 0.096186 0.070717
0.027750 0.047509 0.057873
0.050250 0.071986 0.051163
-0.034750 0.157914 0.055820
0.034500 0.085775 0.059094
-0.044750 0.160759 0.050659
0.034000 0.100521 0.048444
-0.034000 0.129773 0.086511
0.052250 0.057353 0.043827
-0.035750 0.036065 0.055745
-0.009250 0.132035 0.099385
-0.045750 0.099159 0.062094
0.028000 0.081502 0.057411
0.062500 0.065492 0.032670
0.023000 0.060069 0.050542
-0.029250 0.096278 0.084011
-0.013750 0.126584 0.099727
0.053000 0.038240 0.029902
0.025750 0.075074 0.055005
-0.020750 0.078549 0.082342
0.040000 0.075963 0.057524
0.025250 0.107028 0.052159
0.015000 0.041939 0.064735
-0.022250 0.069765 0.074428
0.061750 0.052801 0.025068
0.031250 0.069474 0.054517
-0.017500 0.086227 0.085814
-0.019750 0.048260 0.051505
-0.004500 0.083361 0.083419
-0.010250 0.079992 0.083541
-0.004500 0.154493 0.071287
0.000250 0.083951 0.082220
0.012750 0.092755 0.070957
0.021250 0.125956 0.033731
0.062500 0.102547 0.013238
-0.019750 0.105774 0.083408
0.063000 0.074078 0.034194
0.003000 0.128485 0.091005
0.032250 0.114991 0.042621
0.004750 0.061995 0.063986
0.050000 0.104995 0.029517
-0.018250 0.053738 0.050050
0.021000 0.045621 0.059920
0.063250 0.100649 0.017556
-0.035500 0.089876 0.079702
0.029250 0.123213 0.036657
0.029750 0.062282 0.051866
-0.011250 0.127948 0.099727
-0.022750 0.155246 0.079317
-0.030500 0.063697 0.059907
-0.016250 0.045771 0.054635
0.018250 0.101838 0.060179
0.029250 0.084993 0.057776
-0.011500 0.069237 0.076228
-0.052250 0.167902 0.042032
0.017500 0.090203 0.063291
0.072750 0.054940 -0.011783
0.060250 0.075204 0.039277
-0.020750 0.125191 0.098255
0.056500 0.095521 0.037261
-0.012500 0.127264 0.099614
-0.032250 0.100242 0.081854
0.033500 0.118394 0.039956
-0.030500 0.100963 0.082572
0.001250 0.123777 0.095310
0.027500 0.070090 0.053558
-0.030750 0.072345 0.072630
-0.008500 0.097021 0.085089
0.025750 0.102943 0.054552
-0.005250 0.101631 0.082332
0.031500 0.057413 0.051977
-0.007500 0.056376 0.055697
-0.020000 0.076389 0.080665
-0.016000 0.113764 0.097461
0.058000 0.109940 0.015672
0.001250 0.069613 0.072629
-0.059750 0.172202 0.035170
-0.042500 0.117006 0.074545
0.040250 0.087774 0.057899
-0.021500 0.155931 0.077879
-0.009500 0.073650 0.080306
-0.063750 0.167834 0.035814
-0.052000 0.149853 0.040166
-0.015000 0.165720 0.041530
-0.013000 0.072206 0.079227
-0.006500 0.113639 0.093613
0.023000 0.103721 0.056108
0.019500 0.050635 0.054140
-0.030000 0.083112 0.079943
-0.058250 0.170762 0.037330
0.031250 0.127201 0.029156
0.059500 0.103183 0.023411
-0.032250 0.078074 0.076108
0.027750 0.065092 0.052110
-0.004000 0.169733 0.001667
-0.045500 0.155766 0.051509
-0.030750 0.042047 0.059210
-0.015000 0.146351 0.091003
0.042750 0.126770 0.018996
0.012500 0.117578 0.053001
-0.032250 0.094838 0.082694
-0.040750 0.094277 0.073352
-0.003000 0.037906 0.078675
-0.015750 0.100406 0.084847
0.041750 0.035296 0.048782
0.055750 0.116329 0.013147
0.013750 0.080206 0.068077
0.058000 0.047214 0.018990
0.031000 0.085727 0.058375
0.017000 0.083334 0.063765
0.026750 0.089072 0.056463
0.021250 0.066620 0.053672
0.032750 0.040919 0.061735
0.024250 0.115187 0.046307
0.022750 0.119266 0.043260
0.016750 0.093673 0.063291
0.038000 0.096462 0.051316
-0.003000 0.116383 0.095311
-0.009500 0.138151 0.096552
0.057750 0.082576 0.043608
0.032750 0.069514 0.054996
0.040750 0.120167 0.032591
-0.016250 0.036781 0.062227
-0.009000 0.070708 0.077548
-0.019250 0.147038 0.090324
-0.045000 0.086147 0.064606
0.018250 0.077059 0.062800
0.068750 0.065232 -0.010721
-0.000250 0.075532 0.078386
0.053750 0.117918 0.015946
0.012250 0.074641 0.067114
-0.032750 0.118168 0.087113
0.043750 0.073694 0.055123
-0.011500 0.132711 0.098932
0.008250 0.103735 0.070118
-0.019750 0.039470 0.061259
0.052250 0.088574 0.048676
0.015500 0.095887 0.065567
-0.038500 0.073830 0.065555
-0.066000 0.168428 0.022741
-0.022750 0.156614 0.075841
0.054250 0.089759 0.045653
-0.004250 0.167519 0.007007
0.018000 0.072124 0.061476
0.030500 0.044260 0.060284
-0.040500 0.092260 0.074071
-0.002000 0.150359 0.076443
0.050750 0.056056 0.044965
0.013000 0.125276 0.034621
0.020500 0.118642 0.044911
-0.004500 0.092906 0.084492
0.028750 0.039652 0.062940
-0.022250 0.068206 0.072149
0.037500 0.095177 0.053351
-0.012000 0.177275 0.024881
-0.015750 0.126582 0.099614
-0.029750 0.123670 0.090213
-0.019000 0.034645 0.061873
0.001500 0.064179 0.065308
-0.033000 0.075732 0.072271
-0.051250 0.159288 0.046876
0.021750 0.125956 0.033731
-0.039500 0.119993 0.081247
-0.012500 0.045082 0.054757
0.005250 0.055094 0.063859
-0.011500 0.162830 0.042298
-0.029000 0.102338 0.082811
-0.035000 0.089907 0.080181
-0.022500 0.062868 0.066027
0.059750 0.079390 0.038899
0.049000 0.038814 0.035356
0.043000 0.088374 0.056462
-0.013750 0.086934 0.086292
-0.040500 0.103145 0.072034
-0.024000 0.138100 0.090438
0.042250 0.082297 0.058851
0.071000 0.068189 -0.018682
-0.008000 0.146350 0.089984
0.023000 0.114509 0.046814
0.062000 0.057879 0.026457
-0.005750 0.152463 0.078479
0.000750 0.090735 0.082456
0.045000 0.048410 0.045986
-0.036000 0.144864 0.080999
0.029750 0.072275 0.054761
0.030250 0.035424 0.062591
0.059750 0.049876 0.024184
-0.021500 0.084812 0.084856
0.014000 0.055595 0.061939
0.031250 0.046208 0.058838
0.053000 0.099498 0.032941
0.001750 0.044007 0.077579
0.020500 0.053087 0.050529
-0.000250 0.068196 0.072029
0.019500 0.044272 0.060404
-0.007000 0.104997 0.081492
-0.019500 0.074977 0.079946
0.015000 0.094516 0.065806
-0.043000 0.092000 0.069879
-0.021750 0.122496 0.098142
-0.011500 0.165702 0.040134
0.026750 0.102900 0.053713
-0.003000 0.086087 0.083777
-0.022500 0.048829 0.050182
0.032500 0.083006 0.059091
-0.013750 0.163572 0.043439
-0.000750 0.097460 0.080897
0.002750 0.101388 0.077782
-0.042000 0.122598 0.077536
0.033750 0.065238 0.053790
-0.033000 0.108906 0.077540
0.066250 0.076893 0.025549
-0.004000 0.045714 0.074092
0.008500 0.092378 0.075987
0.007750 0.122455 0.052166
0.023500 0.085646 0.057177
0.010750 0.035308 0.073999
-0.054500 0.158395 0.037739
-0.009750 0.045709 0.054035
0.010500 0.054381 0.063619
0.037500 0.035590 0.057788
0.056000 0.084800 0.045138
-0.019000 0.105105 0.083648
0.000250 0.076918 0.078746
-0.035250 0.146950 0.081477
0.056750 0.041368 0.025459
-0.012500 0.177273 0.024373
-0.001000 0.096791 0.081136
0.064250 0.052845 0.010237
0.040500 0.081639 0.059329
0.014250 0.070361 0.065192
-0.014750 0.114460 0.098254
0.045000 0.121949 0.024846
0.055000 0.059468 0.043956
-0.008250 0.173623 0.028949
-0.002000 0.146279 0.083035
-0.001500 0.050110 0.062790
-0.039750 0.128901 0.080047
0.064000 0.059053 0.023792
0.025250 0.115173 0.046052
0.047000 0.067061 0.050674
0.064500 0.064172 0.017565
-0.019500 0.113716 0.095990
-0.006750 0.058742 0.058701
-0.030500 0.088709 0.082577
-0.008500 0.095676 0.085329
0.042500 0.041494 0.047401
-0.047750 0.157886 0.049707
-0.005500 0.069155 0.075268
0.007500 0.044443 0.075176
-0.066750 0.173640 0.031867
-0.016000 0.042645 0.058247
0.059000 0.104536 0.022015
-0.012000 0.048951 0.051382
-0.027750 0.047026 0.053190
-0.026750 0.142907 0.088853
-0.018500 0.073582 0.079466
0.056250 0.038478 0.025335
0.007000 0.057172 0.063981
0.031000 0.118458 0.041227
-0.032250 0.120927 0.088628
0.055750 0.058651 0.042687
-0.006250 0.079929 0.082701
0.032000 0.081613 0.058969
-0.065500 0.168540 0.033655
0.018250 0.055588 0.054735
-0.005500 0.082009 0.083419
-0.017000 0.135414 0.096440
0.060750 0.108999 0.011857
-0.006250 0.047558 0.058353
0.030750 0.116373 0.041987
0.020000 0.101072 0.058862
-0.000500 0.048162 0.070963
-0.029500 0.099647 0.083411
0.053000 0.075363 0.049730
0.022750 0.050055 0.055343
-0.021500 0.150473 0.087108
-0.051750 0.170769 0.038092
-0.033750 0.090674 0.081498
0.006250 0.060617 0.063984
0.006750 0.056472 0.063861
0.041000 0.104310 0.041467
-0.026750 0.058570 0.041800
0.029250 0.119172 0.041355
-0.024750 0.137403 0.089306
-0.007500 0.151798 0.081476
0.013500 0.089272 0.070358
-0.035500 0.086970 0.076827
0.020750 0.068346 0.057633
-0.045250 0.128539 0.067119
0.008500 0.100366 0.071555
0.025000 0.107713 0.051800
-0.060250 0.167864 0.038606
-0.007250 0.096341 0.085089
0.025500 0.046845 0.058235
-0.003500 0.086096 0.083897
-0.026250 0.129183 0.091685
-0.003500 0.147673 0.083873
-0.038000 0.089706 0.077066
0.056000 0.063653 0.043709
0.040000 0.067439 0.055113
-0.036750 0.135819 0.079326
-0.025250 0.152514 0.084112
-0.040750 0.106464 0.069519
0.036500 0.048780 0.049701
-0.002500 0.158147 0.024539
-0.028500 0.128475 0.090439
0.024000 0.105030 0.054313
0.001750 0.040030 0.079150
0.001750 0.071069 0.073709
-0.040250 0.105150 0.070836
0.004250 0.080876 0.077187
-0.016500 0.082123 0.084978
-0.019250 0.085528 0.085455
-0.032750 0.113928 0.083045
-0.013500 0.150470 0.086869
-0.016500 0.066103 0.071548
0.026750 0.090454 0.056224
0.049500 0.097414 0.044132
-0.045000 0.098597 0.064489
0.064250 0.093787 0.022756
0.023250 0.072188 0.053682
-0.034500 0.072746 0.069152
0.030500 0.036136 0.062710
-0.027000 0.120329 0.091800
0.041750 0.090462 0.056343
-0.036250 0.080699 0.074789
0.033500 0.111555 0.044397
0.038250 0.066754 0.055232
0.061750 0.083486 0.037375
0.049750 0.083199 0.051902
0.020500 0.085969 0.061970
0.024000 0.048135 0.057150
-0.039500 0.071861 0.058238
-0.024500 0.095676 0.085329
-0.006000 0.104973 0.081014
0.030000 0.123868 0.035259
0.039750 0.120203 0.033353
-0.012500 0.055926 0.051014
0.019000 0.074821 0.060640
-0.049500 0.162903 0.047121
0.034750 0.047298 0.055832
-0.013250 0.037496 0.068710
-0.000250 0.047655 0.072766
-0.008250 0.163304 0.025036
-0.015250 0.043269 0.057525
-0.009500 0.143608 0.092815
0.011250 0.100939 0.069399
-0.009500 0.051740 0.051134
-0.003750 0.163157 0.014883
-0.014250 0.097721 0.085448
-0.003250 0.101586 0.081494
-0.024000 0.139475 0.090438
0.029750 0.070855 0.054399
0.059750 0.055072 0.034319
-0.014000 0.177271 0.023485
-0.020250 0.108469 0.082808
0.065750 0.060510 0.016304
-0.009250 0.052455 0.051251
-0.027250 0.126432 0.091458
0.030750 0.076620 0.057045
0.003750 0.047593 0.072165
-0.002500 0.080552 0.081982
0.041250 0.043738 0.048636
0.013250 0.046657 0.063160
0.054000 0.083581 0.047425
0.036750 0.072429 0.056680
0.000750 0.089393 0.082697
0.036000 0.101767 0.045916
-0.008250 0.108446 0.082329
-0.036250 0.084838 0.075509
-0.009750 0.057139 0.056418
-0.010500 0.107839 0.083886
-0.021250 0.108457 0.082569
-0.021750 0.082754 0.084378
0.059500 0.049084 0.023424
0.057500 0.064887 0.041807
0.017750 0.105886 0.057546
-0.038750 0.153690 0.058104
0.026000 0.106327 0.052158
-0.005250 0.159019 0.032026
0.009000 0.113694 0.060780
-0.009500 0.045094 0.054877
0.027000 0.040389 0.063298
0.063500 0.095937 0.022633
0.033750 0.082339 0.059450
-0.034500 0.117425 0.085437
0.055000 0.075253 0.048292
0.047250 0.057918 0.049938
-0.021750 0.119816 0.098142
0.007750 0.076452 0.072751
-0.019000 0.086211 0.085574
0.028250 0.067971 0.053195
-0.050000 0.149914 0.042578
0.009750 0.115682 0.058267
0.052000 0.035512 0.031175
0.052750 0.074683 0.049969
-0.047000 0.150057 0.048284
0.059500 0.054391 0.034572
-0.038750 0.143983 0.069020
0.034500 0.051776 0.051494
0.056000 0.112912 0.017077
-0.013500 0.059771 0.062303
-0.024000 0.095676 0.085329
-0.030500 0.107628 0.079456
-0.024250 0.145661 0.089192
-0.015000 0.119206 0.100406
-0.011750 0.049630 0.051140
-0.002750 0.127936 0.099047
0.059750 0.094352 0.030771
-0.065750 0.172189 0.033393
-0.040500 0.150155 0.057391
0.006250 0.047393 0.070244
-0.010250 0.159228 0.043576
0.023000 0.099652 0.058382
-0.026000 0.081905 0.081981
0.020500 0.083199 0.061847
-0.015750 0.130652 0.098140
0.010750 0.102263 0.068321
0.013500 0.117547 0.052164
0.023250 0.124592 0.035384
0.050750 0.085868 0.050110
-0.026000 0.048497 0.046873
0.053250 0.109642 0.023169
-0.031750 0.115372 0.085079
-0.029500 0.044020 0.058003
-0.003500 0.099594 0.082453
-0.060750 0.157506 0.028855
0.030500 0.088436 0.057421
0.022250 0.121951 0.040214
0.041000 0.043134 0.049599
0.052000 0.115980 0.020514
0.013500 0.058448 0.062902
-0.018000 0.061471 0.065785
0.014500 0.127912 0.028901
0.017000 0.040207 0.061617
-0.016250 0.095025 0.085808
-0.046500 0.123573 0.065210
-0.030250 0.096257 0.083652
-0.029250 0.125038 0.090439
-0.036750 0.105411 0.076104
0.001500 0.045916 0.076013
0.042000 0.050127 0.049097
-0.028500 0.101008 0.083410
0.035500 0.099049 0.047440
0.035750 0.058189 0.052819
-0.044000 0.095929 0.066285
0.017000 0.102552 0.060538
-0.007500 0.115084 0.096782
-0.006250 0.140190 0.094627
-0.021250 0.042111 0.059810
0.002250 0.075427 0.077067
0.024000 0.115865 0.045799
-0.004000 0.067596 0.072988
-0.067250 0.161740 0.019074
0.060000 0.065925 0.037620
-0.069250 0.176554 0.028689
0.012750 0.116877 0.053001
0.025250 0.070747 0.053080
0.047000 0.071375 0.052241
0.010250 0.110354 0.063892
0.034250 0.099811 0.048323
0.012250 0.083179 0.071314
0.026250 0.127271 0.030808
-0.037000 0.110075 0.073110
0.027250 0.053833 0.051010
-0.000250 0.054929 0.062178
-0.004250 0.105607 0.080055
0.069750 0.061123 -0.008015
-0.046250 0.095033 0.062812
-0.021000 0.158594 0.049106
-0.007000 0.090255 0.085571
0.039250 0.109296 0.041980
0.039500 0.064574 0.054149
0.040250 0.052336 0.050051
0.012000 0.082478 0.071074
-0.020750 0.062170 0.065906
0.016500 0.063890 0.062067
0.049500 0.043014 0.034587
-0.000500 0.131314 0.096668
0.069500 0.056358 -0.004899
0.020500 0.049426 0.056065
-0.007500 0.163999 0.022115
-0.005500 0.107645 0.079815
0.036500 0.110084 0.043379
-0.047500 0.158597 0.049825
0.041250 0.124178 0.026113
-0.016750 0.155244 0.078958
0.025750 0.089095 0.056822
-0.022250 0.090912 0.085211
0.011250 0.118300 0.053600
-0.018250 0.100406 0.084847
-0.024000 0.120430 0.095877
0.021000 0.057253 0.050296
-0.053000 0.162868 0.044836
0.058500 0.053041 0.035205
0.065750 0.083875 0.024397
-0.036750 0.118041 0.083761
0.058500 0.087288 0.041069
-0.012250 0.046977 0.052710
0.044750 0.106219 0.037909
-0.044250 0.132787 0.068911
-0.010000 0.038746 0.073750
0.048750 0.105810 0.031171
0.011000 0.110974 0.062216
0.031250 0.117763 0.041480
-0.031750 0.108272 0.078618
0.023250 0.090702 0.060176
0.046000 0.064342 0.051509
-0.051500 0.162884 0.045852
-0.009000 0.092980 0.085690
-0.003750 0.153801 0.072007
0.011500 0.065471 0.064349
0.012000 0.121592 0.047581
-0.030750 0.076620 0.074909
-0.062000 0.175823 0.029325
-0.009000 0.180213 0.020054
0.010250 0.088814 0.073832
0.053250 0.100187 0.032561
0.060500 0.059636 0.030261
