0.025000 0.100920 0.055988
0.025500 0.100888 0.055389
0.026000 0.100882 0.055269
0.026500 0.100863 0.054910
0.027000 0.100850 0.054670
0.027500 0.100844 0.054551
0.028000 0.100825 0.054191
0.028500 0.100800 0.053713
0.029000 0.100787 0.053473
0.029500 0.100768 0.053114
0.030000 0.100749 0.052755
0.030500 0.100736 0.052515
0.031000 0.100711 0.052036
0.031500 0.100692 0.051677
0.032000 0.100673 0.051318
0.032500 0.100660 0.051078
0.033000 0.100559 0.049162
0.033500 0.100540 0.048803
0.034000 0.100521 0.048444
0.034500 0.100492 0.047950
0.035000 0.100475 0.047696
0.035500 0.100449 0.047314
0.036000 0.100424 0.046932
0.036500 0.100407 0.046678
0.037000 0.100323 0.045406
0.037500 0.100281 0.044770
0.038000 0.100264 0.044516
0.038500 0.100239 0.044134
0.039000 0.100222 0.043880
0.039500 0.100205 0.043625
0.040000 0.100189 0.043371
0.040500 0.100155 0.042862
0.041000 0.100138 0.042608
0.041500 0.100121 0.042353
0.042000 0.100087 0.041845
0.042500 0.100062 0.041463
0.043000 0.100020 0.040827
0.043500 0.099944 0.039682
0.044000 0.099894 0.038919
0.044500 0.099860 0.038411
0.045000 0.099852 0.038283
0.045500 0.099801 0.037520
0.046000 0.099784 0.037266
0.046500 0.099751 0.036757
0.047000 0.099709 0.036121
0.047500 0.099928 0.039428
-0.046250 0.101819 0.059820
-0.045750 0.101931 0.061975
-0.045250 0.101981 0.062933
-0.044750 0.102000 0.063292
-0.044250 0.102119 0.065567
-0.043750 0.102150 0.066166
-0.043250 0.102188 0.066885
-0.042750 0.102219 0.067483
-0.042250 0.102269 0.068441
-0.041750 0.102294 0.068920
-0.041250 0.102407 0.071076
-0.040750 0.102463 0.072153
-0.040250 0.102500 0.072872
-0.039750 0.102557 0.073949
-0.039250 0.102582 0.074428
-0.038750 0.102619 0.075147
-0.038250 0.102657 0.075865
-0.037750 0.102675 0.076225
-0.037250 0.102713 0.076943
-0.036750 0.102744 0.077542
-0.036250 0.102769 0.078021
-0.035750 0.102794 0.078500
-0.035250 0.102813 0.078859
-0.034750 0.102838 0.079338
-0.034250 0.102857 0.079697
-0.033750 0.102876 0.080056
-0.033250 0.102894 0.080416
-0.032750 0.102907 0.080655
-0.032250 0.102926 0.081014
-0.031750 0.102938 0.081254
-0.031250 0.102951 0.081493
-0.030750 0.102963 0.081733
-0.030250 0.102976 0.081972
-0.029750 0.102988 0.082212
-0.029250 0.103001 0.082451
-0.028750 0.103013 0.082691
-0.028250 0.103019 0.082810
-0.027750 0.103032 0.083050
-0.027250 0.103038 0.083170
-0.026750 0.103051 0.083409
-0.026250 0.103057 0.083529
-0.025750 0.103057 0.083529
-0.025250 0.103063 0.083649
-0.024750 0.103069 0.083768
-0.024250 0.103076 0.083888
-0.023750 0.103076 0.083888
-0.023250 0.103082 0.084008
-0.022750 0.103082 0.084008
-0.022250 0.103088 0.084128
-0.021750 0.103088 0.084128
-0.021250 0.103088 0.084128
-0.020750 0.103088 0.084128
-0.020250 0.103088 0.084128
-0.019750 0.103088 0.084128
-0.019250 0.103088 0.084128
-0.018750 0.103088 0.084128
-0.018250 0.103088 0.084128
-0.017750 0.103088 0.084128
-0.017250 0.103088 0.084128
-0.016750 0.103088 0.084128
-0.016250 0.103088 0.084128
-0.015750 0.103088 0.084128
-0.015250 0.103088 0.084128
-0.014750 0.103082 0.084008
-0.014250 0.103082 0.084008
-0.013750 0.103082 0.084008
-0.013250 0.103088 0.084128
-0.012750 0.103082 0.084008
-0.012250 0.103076 0.083888
-0.011750 0.103076 0.083888
-0.011250 0.103069 0.083768
-0.010750 0.103063 0.083649
-0.010250 0.103057 0.083529
-0.009750 0.103051 0.083409
-0.009250 0.103038 0.083170
-0.008750 0.103032 0.083050
-0.008250 0.103019 0.082810
-0.007750 0.103013 0.082691
-0.007250 0.103001 0.082451
-0.006750 0.102994 0.082332
-0.006250 0.102988 0.082212
-0.005750 0.102969 0.081852
-0.005250 0.102963 0.081733
-0.004750 0.102951 0.081493
-0.004250 0.102938 0.081254
-0.003750 0.102932 0.081134
-0.003250 0.102926 0.081014
-0.002750 0.102913 0.080775
-0.002250 0.102901 0.080535
-0.001750 0.102888 0.080296
-0.001250 0.102876 0.080056
-0.000750 0.102863 0.079817
-0.000250 0.102850 0.079577
0.000250 0.102832 0.079218
0.000750 0.102813 0.078859
0.001250 0.102782 0.078260
0.001750 0.102769 0.078021
0.002250 0.102750 0.077661
0.002750 0.102732 0.077302
0.003250 0.102707 0.076823
0.003750 0.102688 0.076464
0.004250 0.102669 0.076105
0.004750 0.102650 0.075746
0.005250 0.102625 0.075267
0.005750 0.102594 0.074668
0.006250 0.102563 0.074069
0.006750 0.102538 0.073590
0.007250 0.102500 0.072872
0.007750 0.102394 0.070836
0.008250 0.102388 0.070716
0.008750 0.102375 0.070477
0.009250 0.102357 0.070118
0.009750 0.102325 0.069519
0.010250 0.102306 0.069160
0.010750 0.102263 0.068321
0.011250 0.102219 0.067483
0.011750 0.102206 0.067244
0.012250 0.102200 0.067124
0.012750 0.102181 0.066765
0.013250 0.102169 0.066525
0.013750 0.102150 0.066166
0.014250 0.102125 0.065687
0.014750 0.102088 0.064969
0.015250 0.102069 0.064609
0.015750 0.101931 0.061975
0.016250 0.101913 0.061616
0.016750 0.101894 0.061257
0.017250 0.101875 0.060897
0.017750 0.101850 0.060418
0.018250 0.101838 0.060179
0.018750 0.101812 0.059700
0.019250 0.101787 0.059221
0.019750 0.101769 0.058862
0.020250 0.101756 0.058622
0.020750 0.101744 0.058383
0.021250 0.101731 0.058143
0.021750 0.101706 0.057664
0.022250 0.101694 0.057425
0.022750 0.101687 0.057305
0.023250 0.101675 0.057066
0.023750 0.101662 0.056826
0.024250 0.101644 0.056467
0.024750 0.101606 0.055748
0.025250 0.101581 0.055269
0.025750 0.101575 0.055150
0.026250 0.101556 0.054790
0.026750 0.101550 0.054671
0.027250 0.101537 0.054431
0.027750 0.101512 0.053952
0.028250 0.101487 0.053473
0.028750 0.101475 0.053234
0.029250 0.101462 0.052994
0.029750 0.101450 0.052755
0.030250 0.101431 0.052396
0.030750 0.101406 0.051917
0.031250 0.101394 0.051677
0.031750 0.101375 0.051318
0.032250 0.101356 0.050959
0.032750 0.101268 0.049282
0.033250 0.101250 0.048923
0.033750 0.101231 0.048564
0.034250 0.101212 0.048205
0.034750 0.101187 0.047823
0.035250 0.101171 0.047569
0.035750 0.101145 0.047187
0.036250 0.101112 0.046678
0.036750 0.101004 0.045025
0.037250 0.100987 0.044771
0.037750 0.100979 0.044643
0.038250 0.100945 0.044135
0.038750 0.100929 0.043880
0.039250 0.100904 0.043499
0.039750 0.100879 0.043117
0.040250 0.100837 0.042481
0.040750 0.100804 0.041973
0.041250 0.100779 0.041591
0.041750 0.100754 0.041209
0.042250 0.100720 0.040701
0.042750 0.100679 0.040065
0.043250 0.100637 0.039429
0.043750 0.100603 0.038920
0.044250 0.100562 0.038284
0.044750 0.100537 0.037902
0.045250 0.100503 0.037394
0.045750 0.100478 0.037012
0.046250 0.100453 0.036631
0.046750 0.100428 0.036249
0.047250 0.100395 0.035740
0.047750 0.100370 0.035359
-0.046000 0.102509 0.059700
-0.045500 0.102632 0.062095
-0.045000 0.102682 0.063053
-0.044500 0.102688 0.063173
-0.044000 0.102824 0.065807
-0.043500 0.102848 0.066286
-0.043000 0.102879 0.066885
-0.042500 0.102910 0.067483
-0.042000 0.102978 0.068801
-0.041500 0.102984 0.068920
-0.041000 0.103102 0.071195
-0.040500 0.103145 0.072034
-0.040000 0.103194 0.072991
-0.039500 0.103231 0.073710
-0.039000 0.103268 0.074428
-0.038500 0.103305 0.075147
-0.038000 0.103336 0.075745
-0.037500 0.103367 0.076344
-0.037000 0.103398 0.076943
-0.036500 0.103429 0.077541
-0.036000 0.103453 0.078021
-0.035500 0.103478 0.078499
-0.035000 0.103497 0.078859
-0.034500 0.103515 0.079218
-0.034000 0.103534 0.079577
-0.033500 0.103552 0.079936
-0.033000 0.103565 0.080176
-0.032500 0.103583 0.080535
-0.032000 0.103596 0.080775
-0.031500 0.103608 0.081014
-0.031000 0.103620 0.081254
-0.030500 0.103633 0.081493
-0.030000 0.103645 0.081732
-0.029500 0.103657 0.081972
-0.029000 0.103670 0.082211
-0.028500 0.103682 0.082451
-0.028000 0.103688 0.082571
-0.027500 0.103700 0.082810
-0.027000 0.103707 0.082930
-0.026500 0.103719 0.083169
-0.026000 0.103725 0.083289
-0.025500 0.103731 0.083409
-0.025000 0.103738 0.083529
-0.024500 0.103744 0.083648
-0.024000 0.103750 0.083768
-0.023500 0.103750 0.083768
-0.023000 0.103756 0.083888
-0.022500 0.103756 0.083888
-0.022000 0.103756 0.083888
-0.021500 0.103756 0.083888
-0.021000 0.103762 0.084008
-0.020500 0.103762 0.084008
-0.020000 0.103756 0.083888
-0.019500 0.103762 0.084008
-0.019000 0.103762 0.084008
-0.018500 0.103756 0.083888
-0.018000 0.103762 0.084008
-0.017500 0.103762 0.084008
-0.017000 0.103756 0.083888
-0.016500 0.103756 0.083888
-0.016000 0.103756 0.083888
-0.015500 0.103756 0.083888
-0.015000 0.103756 0.083888
-0.014500 0.103756 0.083888
-0.014000 0.103756 0.083888
-0.013500 0.103756 0.083888
-0.013000 0.103756 0.083888
-0.012500 0.103750 0.083768
-0.012000 0.103750 0.083768
-0.011500 0.103750 0.083768
-0.011000 0.103744 0.083648
-0.010500 0.103738 0.083529
-0.010000 0.103731 0.083409
-0.009500 0.103719 0.083169
-0.009000 0.103707 0.082930
-0.008500 0.103700 0.082810
-0.008000 0.103688 0.082571
-0.007500 0.103676 0.082331
-0.007000 0.103670 0.082211
-0.006500 0.103657 0.081972
-0.006000 0.103639 0.081613
-0.005500 0.103633 0.081493
-0.005000 0.103620 0.081254
-0.004500 0.103614 0.081134
-0.004000 0.103602 0.080894
-0.003500 0.103596 0.080775
-0.003000 0.103583 0.080535
-0.002500 0.103571 0.080296
-0.002000 0.103558 0.080056
-0.001500 0.103546 0.079817
-0.001000 0.103534 0.079577
-0.000500 0.103515 0.079218
0.000000 0.103503 0.078978
0.000500 0.103484 0.078619
0.001000 0.103460 0.078140
0.001500 0.103447 0.077901
0.002000 0.103423 0.077422
0.002500 0.103404 0.077063
0.003000 0.103386 0.076703
0.003500 0.103367 0.076344
0.004000 0.103349 0.075985
0.004500 0.103324 0.075506
0.005000 0.103299 0.075027
0.005500 0.103274 0.074548
0.006000 0.103244 0.073949
0.006500 0.103213 0.073351
0.007000 0.103163 0.072393
0.007500 0.103108 0.071315
0.008000 0.103064 0.070477
0.008500 0.103052 0.070237
0.009000 0.103034 0.069878
0.009500 0.102997 0.069160
0.010000 0.102960 0.068441
0.010500 0.102922 0.067723
0.011000 0.102910 0.067483
0.011500 0.102898 0.067244
0.012000 0.102885 0.067004
0.012500 0.102873 0.066765
0.013000 0.102861 0.066525
0.013500 0.102842 0.066166
0.014000 0.102817 0.065687
0.014500 0.102793 0.065208
0.015000 0.102762 0.064610
0.015500 0.102638 0.062215
0.016000 0.102589 0.061257
0.016500 0.102577 0.061017
0.017000 0.102552 0.060538
0.017500 0.102533 0.060179
0.018000 0.102515 0.059820
0.018500 0.102490 0.059341
0.019000 0.102472 0.058982
0.019500 0.102453 0.058623
0.020000 0.102441 0.058383
0.020500 0.102422 0.058024
0.021000 0.102410 0.057784
0.021500 0.102398 0.057545
0.022000 0.102379 0.057186
0.022500 0.102373 0.057066
0.023000 0.102361 0.056826
0.023500 0.102348 0.056587
0.024000 0.102330 0.056228
0.024500 0.102293 0.055509
0.025000 0.102274 0.055150
0.025500 0.102262 0.054911
0.026000 0.102249 0.054671
0.026500 0.102237 0.054432
0.027000 0.102219 0.054072
0.027500 0.102194 0.053593
0.028000 0.102175 0.053234
0.028500 0.102169 0.053114
0.029000 0.102157 0.052875
0.029500 0.102144 0.052635
0.030000 0.102120 0.052156
0.030500 0.102107 0.051917
0.031000 0.102089 0.051558
0.031500 0.102077 0.051318
0.032000 0.102052 0.050839
0.032500 0.101978 0.049402
0.033000 0.101959 0.049043
0.033500 0.101941 0.048684
0.034000 0.101922 0.048325
0.034500 0.101899 0.047951
0.035000 0.101891 0.047823
0.035500 0.101858 0.047315
0.036000 0.101767 0.045916
0.036500 0.101726 0.045280
0.037000 0.101710 0.045026
0.037500 0.101693 0.044771
0.038000 0.101676 0.044517
0.038500 0.101652 0.044135
0.039000 0.101627 0.043754
0.039500 0.101577 0.042991
0.040000 0.101536 0.042355
0.040500 0.101503 0.041846
0.041000 0.101487 0.041592
0.041500 0.101445 0.040956
0.042000 0.101404 0.040320
0.042500 0.101379 0.039938
0.043000 0.101338 0.039302
0.043500 0.101313 0.038921
0.044000 0.101288 0.038539
0.044500 0.101255 0.038031
0.045000 0.101222 0.037522
0.045500 0.101189 0.037013
0.046000 0.101164 0.036632
0.046500 0.101148 0.036377
0.047000 0.101107 0.035741
0.047500 0.101090 0.035487
-0.045750 0.103205 0.059700
-0.045250 0.103309 0.061736
-0.044750 0.103382 0.063173
-0.044250 0.103376 0.063053
-0.043750 0.103504 0.065568
-0.043250 0.103546 0.066406
-0.042750 0.103583 0.067124
-0.042250 0.103601 0.067483
-0.041750 0.103668 0.068800
-0.041250 0.103687 0.069160
-0.040750 0.103784 0.071075
-0.040250 0.103833 0.072033
-0.039750 0.103882 0.072991
-0.039250 0.103918 0.073710
-0.038750 0.103955 0.074428
-0.038250 0.103985 0.075027
-0.037750 0.104022 0.075745
-0.037250 0.104052 0.076344
-0.036750 0.104077 0.076823
-0.036250 0.104107 0.077422
-0.035750 0.104132 0.077901
-0.035250 0.104150 0.078260
-0.034750 0.104174 0.078739
-0.034250 0.104187 0.078978
-0.033750 0.104211 0.079457
-0.033250 0.104223 0.079697
-0.032750 0.104241 0.080056
-0.032250 0.104254 0.080295
-0.031750 0.104266 0.080535
-0.031250 0.104278 0.080774
-0.030750 0.104290 0.081014
-0.030250 0.104302 0.081253
-0.029750 0.104315 0.081493
-0.029250 0.104327 0.081732
-0.028750 0.104339 0.081972
-0.028250 0.104351 0.082211
-0.027750 0.104357 0.082331
-0.027250 0.104369 0.082570
-0.026750 0.104382 0.082810
-0.026250 0.104388 0.082930
-0.025750 0.104400 0.083169
-0.025250 0.104406 0.083289
-0.024750 0.104412 0.083408
-0.024250 0.104418 0.083528
-0.023750 0.104424 0.083648
-0.023250 0.104424 0.083648
-0.022750 0.104424 0.083648
-0.022250 0.104424 0.083648
-0.021750 0.104430 0.083768
-0.021250 0.104430 0.083768
-0.020750 0.104430 0.083768
-0.020250 0.104430 0.083768
-0.019750 0.104430 0.083768
-0.019250 0.104430 0.083768
-0.018750 0.104430 0.083768
-0.018250 0.104430 0.083768
-0.017750 0.104430 0.083768
-0.017250 0.104430 0.083768
-0.016750 0.104430 0.083768
-0.016250 0.104430 0.083768
-0.015750 0.104430 0.083768
-0.015250 0.104430 0.083768
-0.014750 0.104430 0.083768
-0.014250 0.104430 0.083768
-0.013750 0.104430 0.083768
-0.013250 0.104430 0.083768
-0.012750 0.104424 0.083648
-0.012250 0.104424 0.083648
-0.011750 0.104424 0.083648
-0.011250 0.104424 0.083648
-0.010750 0.104418 0.083528
-0.010250 0.104412 0.083408
-0.009750 0.104400 0.083169
-0.009250 0.104394 0.083049
-0.008750 0.104382 0.082810
-0.008250 0.104369 0.082570
-0.007750 0.104351 0.082211
-0.007250 0.104339 0.081972
-0.006750 0.104327 0.081732
-0.006250 0.104309 0.081373
-0.005750 0.104302 0.081253
-0.005250 0.104290 0.081014
-0.004750 0.104278 0.080774
-0.004250 0.104272 0.080655
-0.003750 0.104266 0.080535
-0.003250 0.104254 0.080295
-0.002750 0.104241 0.080056
-0.002250 0.104229 0.079816
-0.001750 0.104217 0.079577
-0.001250 0.104205 0.079337
-0.000750 0.104187 0.078978
-0.000250 0.104174 0.078739
0.000250 0.104156 0.078380
0.000750 0.104138 0.078020
0.001250 0.104120 0.077661
0.001750 0.104101 0.077302
0.002250 0.104077 0.076823
0.002750 0.104059 0.076464
0.003250 0.104040 0.076105
0.003750 0.104022 0.075745
0.004250 0.104004 0.075386
0.004750 0.103979 0.074907
0.005250 0.103955 0.074428
0.005750 0.103924 0.073829
0.006250 0.103894 0.073231
0.006750 0.103857 0.072512
0.007250 0.103802 0.071435
0.007750 0.103754 0.070477
0.008250 0.103735 0.070118
0.008750 0.103717 0.069758
0.009250 0.103662 0.068681
0.009750 0.103620 0.067843
0.010250 0.103607 0.067603
0.010750 0.103595 0.067364
0.011250 0.103583 0.067124
0.011750 0.103571 0.066885
0.012250 0.103565 0.066765
0.012750 0.103546 0.066406
0.013250 0.103534 0.066166
0.013750 0.103516 0.065807
0.014250 0.103485 0.065208
0.014750 0.103455 0.064610
0.015250 0.103376 0.063053
0.015750 0.103272 0.061017
0.016250 0.103254 0.060658
0.016750 0.103229 0.060179
0.017250 0.103205 0.059700
0.017750 0.103193 0.059461
0.018250 0.103168 0.058982
0.018750 0.103150 0.058623
0.019250 0.103132 0.058263
0.019750 0.103120 0.058024
0.020250 0.103108 0.057785
0.020750 0.103089 0.057425
0.021250 0.103083 0.057306
0.021750 0.103071 0.057066
0.022250 0.103059 0.056827
0.022750 0.103047 0.056587
0.023250 0.103034 0.056348
0.023750 0.103016 0.055988
0.024250 0.102979 0.055270
0.024750 0.102961 0.054911
0.025250 0.102949 0.054671
0.025750 0.102943 0.054552
0.026250 0.102925 0.054192
0.026750 0.102900 0.053713
0.027250 0.102876 0.053234
0.027750 0.102864 0.052995
0.028250 0.102858 0.052875
0.028750 0.102858 0.052875
0.029250 0.102833 0.052396
0.029750 0.102815 0.052037
0.030250 0.102797 0.051678
0.030750 0.102784 0.051438
0.031250 0.102766 0.051079
0.031750 0.102730 0.050361
0.032250 0.102681 0.049403
0.032750 0.102669 0.049163
0.033250 0.102644 0.048684
0.033750 0.102626 0.048325
0.034250 0.102612 0.048078
0.034750 0.102595 0.047824
0.035250 0.102473 0.045916
0.035750 0.102456 0.045662
0.036250 0.102440 0.045408
0.036750 0.102432 0.045280
0.037250 0.102415 0.045026
0.037750 0.102399 0.044772
0.038250 0.102366 0.044263
0.038750 0.102334 0.043754
0.039250 0.102276 0.042864
0.039750 0.102252 0.042482
0.040250 0.102227 0.042101
0.040750 0.102194 0.041592
0.041250 0.102162 0.041084
0.041750 0.102121 0.040448
0.042250 0.102088 0.039939
0.042750 0.102064 0.039558
0.043250 0.102039 0.039176
0.043750 0.102015 0.038794
0.044250 0.101990 0.038413
0.044750 0.101957 0.037904
0.045250 0.101925 0.037395
0.045750 0.101892 0.036887
0.046250 0.101867 0.036505
0.046750 0.101843 0.036124
0.047250 0.101810 0.035615
-0.045500 0.103901 0.059700
-0.045000 0.103998 0.061616
-0.044500 0.104070 0.063053
-0.044000 0.104070 0.063053
-0.043500 0.104196 0.065568
-0.043000 0.104232 0.066286
-0.042500 0.104280 0.067244
-0.042000 0.104311 0.067843
-0.041500 0.104359 0.068800
-0.041000 0.104413 0.069878
-0.040500 0.104467 0.070956
-0.040000 0.104521 0.072033
-0.039500 0.104569 0.072991
-0.039000 0.104605 0.073710
-0.038500 0.104636 0.074308
-0.038000 0.104678 0.075146
-0.037500 0.104702 0.075625
-0.037000 0.104732 0.076224
-0.036500 0.104762 0.076823
-0.036000 0.104786 0.077302
-0.035500 0.104804 0.077661
-0.035000 0.104828 0.078140
-0.034500 0.104846 0.078499
-0.034000 0.104864 0.078858
-0.033500 0.104876 0.079098
-0.033000 0.104894 0.079457
-0.032500 0.104912 0.079816
-0.032000 0.104924 0.080056
-0.031500 0.104936 0.080295
-0.031000 0.104948 0.080535
-0.030500 0.104961 0.080774
-0.030000 0.104967 0.080894
-0.029500 0.104979 0.081133
-0.029000 0.104991 0.081373
-0.028500 0.105003 0.081612
-0.028000 0.105015 0.081852
-0.027500 0.105027 0.082091
-0.027000 0.105039 0.082331
-0.026500 0.105051 0.082570
-0.026000 0.105063 0.082809
-0.025500 0.105069 0.082929
-0.025000 0.105075 0.083049
-0.024500 0.105081 0.083169
-0.024000 0.105087 0.083289
-0.023500 0.105093 0.083408
-0.023000 0.105093 0.083408
-0.022500 0.105093 0.083408
-0.022000 0.105099 0.083528
-0.021500 0.105099 0.083528
-0.021000 0.105099 0.083528
-0.020500 0.105099 0.083528
-0.020000 0.105099 0.083528
-0.019500 0.105099 0.083528
-0.019000 0.105105 0.083648
-0.018500 0.105099 0.083528
-0.018000 0.105099 0.083528
-0.017500 0.105105 0.083648
-0.017000 0.105105 0.083648
-0.016500 0.105105 0.083648
-0.016000 0.105105 0.083648
-0.015500 0.105105 0.083648
-0.015000 0.105105 0.083648
-0.014500 0.105105 0.083648
-0.014000 0.105105 0.083648
-0.013500 0.105105 0.083648
-0.013000 0.105099 0.083528
-0.012500 0.105099 0.083528
-0.012000 0.105099 0.083528
-0.011500 0.105099 0.083528
-0.011000 0.105099 0.083528
-0.010500 0.105093 0.083408
-0.010000 0.105087 0.083289
-0.009500 0.105075 0.083049
-0.009000 0.105063 0.082809
-0.008500 0.105051 0.082570
-0.008000 0.105033 0.082211
-0.007500 0.105015 0.081852
-0.007000 0.104997 0.081492
-0.006500 0.104985 0.081253
-0.006000 0.104973 0.081014
-0.005500 0.104961 0.080774
-0.005000 0.104948 0.080535
-0.004500 0.104942 0.080415
-0.004000 0.104936 0.080295
-0.003500 0.104924 0.080056
-0.003000 0.104912 0.079816
-0.002500 0.104900 0.079577
-0.002000 0.104888 0.079337
-0.001500 0.104876 0.079098
-0.001000 0.104852 0.078619
-0.000500 0.104846 0.078499
0.000000 0.104828 0.078140
0.000500 0.104810 0.077781
0.001000 0.104798 0.077541
0.001500 0.104774 0.077062
0.002000 0.104744 0.076464
0.002500 0.104732 0.076224
0.003000 0.104714 0.075865
0.003500 0.104690 0.075386
0.004000 0.104678 0.075146
0.004500 0.104654 0.074667
0.005000 0.104636 0.074308
0.005500 0.104599 0.073590
0.006000 0.104581 0.073231
0.006500 0.104551 0.072632
0.007000 0.104479 0.071195
0.007500 0.104437 0.070357
0.008000 0.104425 0.070117
0.008500 0.104395 0.069519
0.009000 0.104317 0.067962
0.009500 0.104305 0.067723
0.010000 0.104293 0.067483
0.010500 0.104286 0.067364
0.011000 0.104274 0.067124
0.011500 0.104262 0.066885
0.012000 0.104250 0.066645
0.012500 0.104238 0.066406
0.013000 0.104220 0.066046
0.013500 0.104208 0.065807
0.014000 0.104172 0.065089
0.014500 0.104154 0.064729
0.015000 0.104094 0.063532
0.015500 0.103949 0.060658
0.016000 0.103931 0.060299
0.016500 0.103913 0.059940
0.017000 0.103877 0.059222
0.017500 0.103865 0.058982
0.018000 0.103847 0.058623
0.018500 0.103835 0.058383
0.019000 0.103817 0.058024
0.019500 0.103811 0.057904
0.020000 0.103799 0.057665
0.020500 0.103781 0.057306
0.021000 0.103763 0.056946
0.021500 0.103751 0.056707
0.022000 0.103739 0.056468
0.022500 0.103733 0.056348
0.023000 0.103721 0.056108
0.023500 0.103703 0.055749
0.024000 0.103667 0.055031
0.024500 0.103655 0.054791
0.025000 0.103643 0.054552
0.025500 0.103625 0.054193
0.026000 0.103606 0.053833
0.026500 0.103582 0.053354
0.027000 0.103564 0.052995
0.027500 0.103558 0.052875
0.028000 0.103552 0.052756
0.028500 0.103546 0.052636
0.029000 0.103522 0.052157
0.029500 0.103498 0.051678
0.030000 0.103486 0.051439
0.030500 0.103480 0.051319
0.031000 0.103462 0.050960
0.031500 0.103420 0.050122
0.032000 0.103384 0.049403
0.032500 0.103366 0.049044
0.033000 0.103354 0.048805
0.033500 0.103330 0.048326
0.034000 0.103316 0.048079
0.034500 0.103307 0.047952
0.035000 0.103186 0.046044
0.035500 0.103170 0.045790
0.036000 0.103162 0.045662
0.036500 0.103145 0.045408
0.037000 0.103129 0.045154
0.037500 0.103113 0.044899
0.038000 0.103097 0.044645
0.038500 0.103032 0.043628
0.039000 0.102991 0.042992
0.039500 0.102975 0.042737
0.040000 0.102951 0.042356
0.040500 0.102919 0.041847
0.041000 0.102886 0.041339
0.041500 0.102854 0.040830
0.042000 0.102821 0.040321
0.042500 0.102797 0.039940
0.043000 0.102773 0.039558
0.043500 0.102749 0.039177
0.044000 0.102716 0.038668
0.044500 0.102692 0.038287
0.045000 0.102659 0.037778
0.045500 0.102627 0.037269
0.046000 0.102603 0.036888
0.046500 0.102570 0.036379
0.047000 0.102538 0.035870
0.047500 0.102489 0.035107
-0.045250 0.104604 0.059820
-0.044750 0.104710 0.061976
-0.044250 0.104770 0.063173
-0.043750 0.104776 0.063293
-0.043250 0.104883 0.065448
-0.042750 0.104918 0.066166
-0.042250 0.104978 0.067364
-0.041750 0.105019 0.068202
-0.041250 0.105067 0.069160
-0.040750 0.105114 0.070117
-0.040250 0.105150 0.070836
-0.039750 0.105198 0.071794
-0.039250 0.105251 0.072871
-0.038750 0.105281 0.073470
-0.038250 0.105322 0.074308
-0.037750 0.105352 0.074907
-0.037250 0.105388 0.075625
-0.036750 0.105411 0.076104
-0.036250 0.105435 0.076583
-0.035750 0.105459 0.077062
-0.035250 0.105483 0.077541
-0.034750 0.105500 0.077900
-0.034250 0.105518 0.078259
-0.033750 0.105536 0.078619
-0.033250 0.105548 0.078858
-0.032750 0.105566 0.079217
-0.032250 0.105578 0.079457
-0.031750 0.105595 0.079816
-0.031250 0.105607 0.080055
-0.030750 0.105619 0.080295
-0.030250 0.105631 0.080534
-0.029750 0.105637 0.080654
-0.029250 0.105649 0.080893
-0.028750 0.105655 0.081013
-0.028250 0.105673 0.081373
-0.027750 0.105685 0.081612
-0.027250 0.105696 0.081851
-0.026750 0.105708 0.082091
-0.026250 0.105720 0.082330
-0.025750 0.105732 0.082570
-0.025250 0.105738 0.082689
-0.024750 0.105744 0.082809
-0.024250 0.105756 0.083049
-0.023750 0.105756 0.083049
-0.023250 0.105762 0.083169
-0.022750 0.105762 0.083169
-0.022250 0.105768 0.083288
-0.021750 0.105768 0.083288
-0.021250 0.105774 0.083408
-0.020750 0.105768 0.083288
-0.020250 0.105774 0.083408
-0.019750 0.105774 0.083408
-0.019250 0.105774 0.083408
-0.018750 0.105774 0.083408
-0.018250 0.105774 0.083408
-0.017750 0.105774 0.083408
-0.017250 0.105780 0.083528
-0.016750 0.105780 0.083528
-0.016250 0.105780 0.083528
-0.015750 0.105780 0.083528
-0.015250 0.105780 0.083528
-0.014750 0.105780 0.083528
-0.014250 0.105780 0.083528
-0.013750 0.105780 0.083528
-0.013250 0.105780 0.083528
-0.012750 0.105786 0.083647
-0.012250 0.105780 0.083528
-0.011750 0.105780 0.083528
-0.011250 0.105780 0.083528
-0.010750 0.105774 0.083408
-0.010250 0.105768 0.083288
-0.009750 0.105762 0.083169
-0.009250 0.105744 0.082809
-0.008750 0.105732 0.082570
-0.008250 0.105714 0.082211
-0.007750 0.105696 0.081851
-0.007250 0.105673 0.081373
-0.006750 0.105661 0.081133
-0.006250 0.105649 0.080893
-0.005750 0.105637 0.080654
-0.005250 0.105625 0.080415
-0.004750 0.105613 0.080175
-0.004250 0.105607 0.080055
-0.003750 0.105595 0.079816
-0.003250 0.105584 0.079576
-0.002750 0.105572 0.079337
-0.002250 0.105560 0.079098
-0.001750 0.105542 0.078738
-0.001250 0.105524 0.078379
-0.000750 0.105512 0.078140
-0.000250 0.105500 0.077900
0.000250 0.105483 0.077541
0.000750 0.105471 0.077301
0.001250 0.105441 0.076703
0.001750 0.105417 0.076224
0.002250 0.105399 0.075865
0.002750 0.105382 0.075506
0.003250 0.105364 0.075146
0.003750 0.105352 0.074907
0.004250 0.105328 0.074428
0.004750 0.105310 0.074069
0.005250 0.105275 0.073350
0.005750 0.105251 0.072871
0.006250 0.105233 0.072512
0.006750 0.105162 0.071075
0.007250 0.105126 0.070357
0.007750 0.105120 0.070237
0.008250 0.105091 0.069639
0.008750 0.104996 0.067723
0.009250 0.104990 0.067603
0.009750 0.104984 0.067483
0.010250 0.104972 0.067244
0.010750 0.104966 0.067124
0.011250 0.104954 0.066885
0.011750 0.104942 0.066645
0.012250 0.104924 0.066286
0.012750 0.104906 0.065927
0.013250 0.104889 0.065568
0.013750 0.104859 0.064969
0.014250 0.104841 0.064610
0.014750 0.104794 0.063652
0.015250 0.104740 0.062574
0.015750 0.104609 0.059940
0.016250 0.104592 0.059581
0.016750 0.104556 0.058862
0.017250 0.104544 0.058623
0.017750 0.104532 0.058384
0.018250 0.104520 0.058144
0.018750 0.104509 0.057905
0.019250 0.104497 0.057665
0.019750 0.104473 0.057186
0.020250 0.104449 0.056707
0.020750 0.104437 0.056468
0.021250 0.104431 0.056348
0.021750 0.104419 0.056109
0.022250 0.104413 0.055989
0.022750 0.104402 0.055749
0.023250 0.104384 0.055390
0.023750 0.104354 0.054792
0.024250 0.104342 0.054552
0.024750 0.104330 0.054313
0.025250 0.104313 0.053953
0.025750 0.104283 0.053355
0.026250 0.104265 0.052996
0.026750 0.104259 0.052876
0.027250 0.104247 0.052636
0.027750 0.104241 0.052517
0.028250 0.104235 0.052397
0.028750 0.104217 0.052038
0.029250 0.104188 0.051439
0.029750 0.104182 0.051319
0.030250 0.104170 0.051080
0.030750 0.104158 0.050840
0.031250 0.104116 0.050002
0.031750 0.104087 0.049404
0.032250 0.104069 0.049044
0.032750 0.104051 0.048685
0.033250 0.104033 0.048326
0.033750 0.104027 0.048206
0.034250 0.103995 0.047698
0.034750 0.103891 0.046044
0.035250 0.103883 0.045917
0.035750 0.103867 0.045663
0.036250 0.103859 0.045536
0.036750 0.103843 0.045281
0.037250 0.103835 0.045154
0.037750 0.103787 0.044391
0.038250 0.103739 0.043628
0.038750 0.103723 0.043374
0.039250 0.103699 0.042993
0.039750 0.103675 0.042611
0.040250 0.103642 0.042102
0.040750 0.103610 0.041594
0.041250 0.103578 0.041085
0.041750 0.103554 0.040703
0.042250 0.103530 0.040322
0.042750 0.103514 0.040068
0.043250 0.103482 0.039559
0.043750 0.103442 0.038923
0.044250 0.103426 0.038669
0.044750 0.103394 0.038160
0.045250 0.103370 0.037779
0.045750 0.103346 0.037397
0.046250 0.103306 0.036761
0.046750 0.103265 0.036126
0.047250 0.103209 0.035235
-0.045000 0.105306 0.059940
-0.044500 0.105399 0.061856
-0.044000 0.105464 0.063173
-0.043500 0.105499 0.063891
-0.043000 0.105569 0.065328
-0.042500 0.105610 0.066166
-0.042000 0.105675 0.067483
-0.041500 0.105734 0.068681
-0.041000 0.105757 0.069160
-0.040500 0.105804 0.070117
-0.040000 0.105845 0.070956
-0.039500 0.105880 0.071674
-0.039000 0.105921 0.072512
-0.038500 0.105956 0.073230
-0.038000 0.105997 0.074069
-0.037500 0.106032 0.074787
-0.037000 0.106068 0.075505
-0.036500 0.106091 0.075984
-0.036000 0.106115 0.076463
-0.035500 0.106138 0.076942
-0.035000 0.106156 0.077301
-0.034500 0.106173 0.077660
-0.034000 0.106191 0.078020
-0.033500 0.106208 0.078379
-0.033000 0.106220 0.078618
-0.032500 0.106238 0.078978
-0.032000 0.106249 0.079217
-0.031500 0.106261 0.079456
-0.031000 0.106279 0.079816
-0.030500 0.106290 0.080055
-0.030000 0.106302 0.080295
-0.029500 0.106314 0.080534
-0.029000 0.106320 0.080654
-0.028500 0.106331 0.080893
-0.028000 0.106343 0.081133
-0.027500 0.106355 0.081372
-0.027000 0.106372 0.081731
-0.026500 0.106378 0.081851
-0.026000 0.106390 0.082091
-0.025500 0.106402 0.082330
-0.025000 0.106408 0.082450
-0.024500 0.106419 0.082689
-0.024000 0.106425 0.082809
-0.023500 0.106425 0.082809
-0.023000 0.106431 0.082929
-0.022500 0.106431 0.082929
-0.022000 0.106437 0.083048
-0.021500 0.106437 0.083048
-0.021000 0.106443 0.083168
-0.020500 0.106443 0.083168
-0.020000 0.106449 0.083288
-0.019500 0.106449 0.083288
-0.019000 0.106449 0.083288
-0.018500 0.106449 0.083288
-0.018000 0.106454 0.083408
-0.017500 0.106454 0.083408
-0.017000 0.106454 0.083408
-0.016500 0.106454 0.083408
-0.016000 0.106460 0.083527
-0.015500 0.106460 0.083527
-0.015000 0.106460 0.083527
-0.014500 0.106466 0.083647
-0.014000 0.106460 0.083527
-0.013500 0.106460 0.083527
-0.013000 0.106466 0.083647
-0.012500 0.106466 0.083647
-0.012000 0.106466 0.083647
-0.011500 0.106466 0.083647
-0.011000 0.106460 0.083527
-0.010500 0.106460 0.083527
-0.010000 0.106449 0.083288
-0.009500 0.106437 0.083048
-0.009000 0.106419 0.082689
-0.008500 0.106402 0.082330
-0.008000 0.106378 0.081851
-0.007500 0.106355 0.081372
-0.007000 0.106337 0.081013
-0.006500 0.106320 0.080654
-0.006000 0.106314 0.080534
-0.005500 0.106302 0.080295
-0.005000 0.106290 0.080055
-0.004500 0.106279 0.079816
-0.004000 0.106267 0.079576
-0.003500 0.106255 0.079337
-0.003000 0.106243 0.079097
-0.002500 0.106232 0.078858
-0.002000 0.106214 0.078499
-0.001500 0.106197 0.078139
-0.001000 0.106185 0.077900
-0.000500 0.106173 0.077660
0.000000 0.106156 0.077301
0.000500 0.106138 0.076942
0.001000 0.106115 0.076463
0.001500 0.106091 0.075984
0.002000 0.106068 0.075505
0.002500 0.106056 0.075266
0.003000 0.106038 0.074907
0.003500 0.106015 0.074428
0.004000 0.105997 0.074069
0.004500 0.105980 0.073709
0.005000 0.105956 0.073230
0.005500 0.105921 0.072512
0.006000 0.105903 0.072153
0.006500 0.105851 0.071075
0.007000 0.105827 0.070596
0.007500 0.105804 0.070117
0.008000 0.105786 0.069758
0.008500 0.105681 0.067603
0.009000 0.105681 0.067603
0.009500 0.105669 0.067364
0.010000 0.105657 0.067124
0.010500 0.105651 0.067004
0.011000 0.105640 0.066765
0.011500 0.105628 0.066526
0.012000 0.105610 0.066166
0.012500 0.105587 0.065687
0.013000 0.105569 0.065328
0.013500 0.105552 0.064969
0.014000 0.105522 0.064370
0.014500 0.105499 0.063891
0.015000 0.105452 0.062934
0.015500 0.105288 0.059581
0.016000 0.105270 0.059222
0.016500 0.105247 0.058743
0.017000 0.105229 0.058384
0.017500 0.105224 0.058264
0.018000 0.105206 0.057905
0.018500 0.105188 0.057546
0.019000 0.105165 0.057067
0.019500 0.105147 0.056708
0.020000 0.105130 0.056348
0.020500 0.105124 0.056229
0.021000 0.105118 0.056109
0.021500 0.105112 0.055989
0.022000 0.105100 0.055750
0.022500 0.105089 0.055510
0.023000 0.105065 0.055031
0.023500 0.105048 0.054672
0.024000 0.105030 0.054313
0.024500 0.105013 0.053954
0.025000 0.104995 0.053595
0.025500 0.104966 0.052996
0.026000 0.104954 0.052756
0.026500 0.104948 0.052637
0.027000 0.104930 0.052277
0.027500 0.104930 0.052277
0.028000 0.104925 0.052158
0.028500 0.104907 0.051798
0.029000 0.104884 0.051320
0.029500 0.104872 0.051080
0.030000 0.104854 0.050721
0.030500 0.104843 0.050481
0.031000 0.104813 0.049883
0.031500 0.104796 0.049524
0.032000 0.104772 0.049045
0.032500 0.104755 0.048685
0.033000 0.104737 0.048326
0.033500 0.104723 0.048079
0.034000 0.104612 0.046299
0.034500 0.104596 0.046045
0.035000 0.104588 0.045918
0.035500 0.104580 0.045791
0.036000 0.104572 0.045663
0.036500 0.104557 0.045409
0.037000 0.104541 0.045155
0.037500 0.104485 0.044265
0.038000 0.104453 0.043756
0.038500 0.104437 0.043502
0.039000 0.104422 0.043247
0.039500 0.104382 0.042612
0.040000 0.104350 0.042103
0.040500 0.104334 0.041849
0.041000 0.104310 0.041467
0.041500 0.104287 0.041086
0.042000 0.104263 0.040704
0.042500 0.104247 0.040450
0.043000 0.104215 0.039941
0.043500 0.104175 0.039306
0.044000 0.104144 0.038797
0.044500 0.104120 0.038415
0.045000 0.104088 0.037907
0.045500 0.104072 0.037652
0.046000 0.104032 0.037017
0.046500 0.103993 0.036381
0.047000 0.103945 0.035618
-0.044750 0.105979 0.059462
-0.044250 0.106071 0.061377
-0.043750 0.106152 0.063053
-0.043250 0.106210 0.064251
-0.042750 0.106262 0.065328
-0.042250 0.106308 0.066286
-0.041750 0.106360 0.067364
-0.041250 0.106418 0.068561
-0.040750 0.106464 0.069519
-0.040250 0.106499 0.070237
-0.039750 0.106540 0.071075
-0.039250 0.106568 0.071674
-0.038750 0.106603 0.072392
-0.038250 0.106626 0.072871
-0.037750 0.106678 0.073949
-0.037250 0.106707 0.074547
-0.036750 0.106742 0.075266
-0.036250 0.106771 0.075864
-0.035750 0.106788 0.076224
-0.035250 0.106811 0.076703
-0.034750 0.106829 0.077062
-0.034250 0.106846 0.077421
-0.033750 0.106863 0.077780
-0.033250 0.106887 0.078259
-0.032750 0.106898 0.078498
-0.032250 0.106915 0.078858
-0.031750 0.106921 0.078977
-0.031250 0.106933 0.079217
-0.030750 0.106950 0.079576
-0.030250 0.106962 0.079815
-0.029750 0.106973 0.080055
-0.029250 0.106985 0.080294
-0.028750 0.106991 0.080414
-0.028250 0.107002 0.080654
-0.027750 0.107014 0.080893
-0.027250 0.107031 0.081252
-0.026750 0.107043 0.081492
-0.026250 0.107054 0.081731
-0.025750 0.107066 0.081971
-0.025250 0.107077 0.082210
-0.024750 0.107083 0.082330
-0.024250 0.107089 0.082449
-0.023750 0.107095 0.082569
-0.023250 0.107095 0.082569
-0.022750 0.107101 0.082689
-0.022250 0.107106 0.082809
-0.021750 0.107106 0.082809
-0.021250 0.107112 0.082928
-0.020750 0.107112 0.082928
-0.020250 0.107118 0.083048
-0.019750 0.107118 0.083048
-0.019250 0.107118 0.083048
-0.018750 0.107124 0.083168
-0.018250 0.107129 0.083288
-0.017750 0.107129 0.083288
-0.017250 0.107129 0.083288
-0.016750 0.107129 0.083288
-0.016250 0.107135 0.083407
-0.015750 0.107135 0.083407
-0.015250 0.107141 0.083527
-0.014750 0.107147 0.083647
-0.014250 0.107147 0.083647
-0.013750 0.107147 0.083647
-0.013250 0.107153 0.083766
-0.012750 0.107153 0.083766
-0.012250 0.107153 0.083766
-0.011750 0.107153 0.083766
-0.011250 0.107153 0.083766
-0.010750 0.107147 0.083647
-0.010250 0.107141 0.083527
-0.009750 0.107129 0.083288
-0.009250 0.107118 0.083048
-0.008750 0.107095 0.082569
-0.008250 0.107066 0.081971
-0.007750 0.107043 0.081492
-0.007250 0.107020 0.081013
-0.006750 0.107002 0.080654
-0.006250 0.106991 0.080414
-0.005750 0.106973 0.080055
-0.005250 0.106968 0.079935
-0.004750 0.106956 0.079696
-0.004250 0.106944 0.079456
-0.003750 0.106933 0.079217
-0.003250 0.106921 0.078977
-0.002750 0.106910 0.078738
-0.002250 0.106892 0.078379
-0.001750 0.106875 0.078020
-0.001250 0.106858 0.077660
-0.000750 0.106846 0.077421
-0.000250 0.106823 0.076942
0.000250 0.106811 0.076703
0.000750 0.106782 0.076104
0.001250 0.106759 0.075625
0.001750 0.106742 0.075266
0.002250 0.106725 0.074907
0.002750 0.106707 0.074547
0.003250 0.106684 0.074068
0.003750 0.106667 0.073709
0.004250 0.106649 0.073350
0.004750 0.106626 0.072871
0.005250 0.106597 0.072273
0.005750 0.106568 0.071674
0.006250 0.106551 0.071315
0.006750 0.106522 0.070716
0.007250 0.106493 0.070117
0.007750 0.106470 0.069639
0.008250 0.106366 0.067483
0.008750 0.106372 0.067603
0.009250 0.106360 0.067364
0.009750 0.106349 0.067124
0.010250 0.106337 0.066885
0.010750 0.106331 0.066765
0.011250 0.106314 0.066406
0.011750 0.106291 0.065927
0.012250 0.106274 0.065568
0.012750 0.106250 0.065089
0.013250 0.106233 0.064730
0.013750 0.106204 0.064131
0.014250 0.106187 0.063772
0.014750 0.106141 0.062814
0.015250 0.105979 0.059462
0.015750 0.105955 0.058983
0.016250 0.105938 0.058623
0.016750 0.105921 0.058264
0.017250 0.105903 0.057905
0.017750 0.105886 0.057546
0.018250 0.105869 0.057187
0.018750 0.105851 0.056828
0.019250 0.105840 0.056588
0.019750 0.105828 0.056349
0.020250 0.105822 0.056229
0.020750 0.105811 0.055989
0.021250 0.105799 0.055750
0.021750 0.105788 0.055510
0.022250 0.105770 0.055151
0.022750 0.105753 0.054792
0.023250 0.105736 0.054433
0.023750 0.105713 0.053954
0.024250 0.105695 0.053595
0.024750 0.105678 0.053236
0.025250 0.105661 0.052876
0.025750 0.105649 0.052637
0.026250 0.105637 0.052397
0.026750 0.105620 0.052038
0.027250 0.105614 0.051919
0.027750 0.105608 0.051799
0.028250 0.105597 0.051559
0.028750 0.105574 0.051081
0.029250 0.105562 0.050841
0.029750 0.105545 0.050482
0.030250 0.105533 0.050242
0.030750 0.105510 0.049764
0.031250 0.105487 0.049285
0.031750 0.105470 0.048925
0.032250 0.105452 0.048566
0.032750 0.105435 0.048207
0.033250 0.105427 0.048080
0.033750 0.105325 0.046427
0.034250 0.105309 0.046173
0.034750 0.105301 0.046045
0.035250 0.105286 0.045791
0.035750 0.105278 0.045664
0.036250 0.105262 0.045410
0.036750 0.105254 0.045283
0.037250 0.105207 0.044519
0.037750 0.105168 0.043884
0.038250 0.105152 0.043630
0.038750 0.105128 0.043248
0.039250 0.105097 0.042739
0.039750 0.105066 0.042231
0.040250 0.105042 0.041849
0.040750 0.105026 0.041595
0.041250 0.105010 0.041341
0.041750 0.104995 0.041086
0.042250 0.104971 0.040705
0.042750 0.104948 0.040323
0.043250 0.104900 0.039561
0.043750 0.104869 0.039052
0.044250 0.104845 0.038670
0.044750 0.104814 0.038162
0.045250 0.104790 0.037780
0.045750 0.104767 0.037399
0.046250 0.104720 0.036636
0.046750 0.104617 0.034983
-0.044500 0.106686 0.059701
-0.044000 0.106778 0.061617
-0.043500 0.106823 0.062575
-0.043000 0.106909 0.064370
-0.042500 0.106960 0.065448
-0.042000 0.107006 0.066406
-0.041500 0.107057 0.067483
-0.041000 0.107103 0.068441
-0.040500 0.107160 0.069639
-0.040000 0.107200 0.070476
-0.039500 0.107223 0.070955
-0.039000 0.107263 0.071793
-0.038500 0.107285 0.072272
-0.038000 0.107308 0.072751
-0.037500 0.107348 0.073589
-0.037000 0.107388 0.074427
-0.036500 0.107417 0.075026
-0.036000 0.107445 0.075625
-0.035500 0.107468 0.076104
-0.035000 0.107485 0.076463
-0.034500 0.107502 0.076822
-0.034000 0.107519 0.077181
-0.033500 0.107542 0.077660
-0.033000 0.107559 0.078019
-0.032500 0.107576 0.078379
-0.032000 0.107588 0.078618
-0.031500 0.107599 0.078857
-0.031000 0.107611 0.079097
-0.030500 0.107628 0.079456
-0.030000 0.107639 0.079696
-0.029500 0.107651 0.079935
-0.029000 0.107662 0.080174
-0.028500 0.107673 0.080414
-0.028000 0.107685 0.080653
-0.027500 0.107696 0.080893
-0.027000 0.107708 0.081132
-0.026500 0.107719 0.081372
-0.026000 0.107730 0.081611
-0.025500 0.107742 0.081851
-0.025000 0.107753 0.082090
-0.024500 0.107759 0.082210
-0.024000 0.107759 0.082210
-0.023500 0.107765 0.082329
-0.023000 0.107770 0.082449
-0.022500 0.107770 0.082449
-0.022000 0.107776 0.082569
-0.021500 0.107782 0.082689
-0.021000 0.107787 0.082808
-0.020500 0.107787 0.082808
-0.020000 0.107787 0.082808
-0.019500 0.107793 0.082928
-0.019000 0.107799 0.083048
-0.018500 0.107805 0.083168
-0.018000 0.107805 0.083168
-0.017500 0.107810 0.083287
-0.017000 0.107810 0.083287
-0.016500 0.107816 0.083407
-0.016000 0.107822 0.083527
-0.015500 0.107827 0.083646
-0.015000 0.107833 0.083766
-0.014500 0.107839 0.083886
-0.014000 0.107839 0.083886
-0.013500 0.107839 0.083886
-0.013000 0.107845 0.084006
-0.012500 0.107845 0.084006
-0.012000 0.107850 0.084125
-0.011500 0.107850 0.084125
-0.011000 0.107845 0.084006
-0.010500 0.107839 0.083886
-0.010000 0.107833 0.083766
-0.009500 0.107816 0.083407
-0.009000 0.107793 0.082928
-0.008500 0.107776 0.082569
-0.008000 0.107730 0.081611
-0.007500 0.107702 0.081013
-0.007000 0.107685 0.080653
-0.006500 0.107668 0.080294
-0.006000 0.107656 0.080055
-0.005500 0.107645 0.079815
-0.005000 0.107633 0.079576
-0.004500 0.107616 0.079217
-0.004000 0.107605 0.078977
-0.003500 0.107599 0.078857
-0.003000 0.107582 0.078498
-0.002500 0.107565 0.078139
-0.002000 0.107548 0.077780
-0.001500 0.107531 0.077421
-0.001000 0.107514 0.077062
-0.000500 0.107497 0.076702
0.000000 0.107479 0.076343
0.000500 0.107451 0.075745
0.001000 0.107428 0.075266
0.001500 0.107411 0.074906
0.002000 0.107394 0.074547
0.002500 0.107377 0.074188
0.003000 0.107360 0.073829
0.003500 0.107343 0.073470
0.004000 0.107320 0.072991
0.004500 0.107291 0.072392
0.005000 0.107274 0.072033
0.005500 0.107251 0.071554
0.006000 0.107223 0.070955
0.006500 0.107200 0.070476
0.007000 0.107177 0.069998
0.007500 0.107154 0.069519
0.008000 0.107057 0.067483
0.008500 0.107057 0.067483
0.009000 0.107052 0.067364
0.009500 0.107034 0.067004
0.010000 0.107029 0.066885
0.010500 0.107017 0.066645
0.011000 0.106995 0.066166
0.011500 0.106972 0.065687
0.012000 0.106960 0.065448
0.012500 0.106932 0.064849
0.013000 0.106909 0.064370
0.013500 0.106886 0.063892
0.014000 0.106863 0.063413
0.014500 0.106829 0.062694
0.015000 0.106681 0.059581
0.015500 0.106641 0.058743
0.016000 0.106624 0.058384
0.016500 0.106612 0.058145
0.017000 0.106589 0.057666
0.017500 0.106572 0.057307
0.018000 0.106561 0.057067
0.018500 0.106544 0.056708
0.019000 0.106532 0.056468
0.019500 0.106521 0.056229
0.020000 0.106510 0.055990
0.020500 0.106498 0.055750
0.021000 0.106481 0.055391
0.021500 0.106470 0.055151
0.022000 0.106458 0.054912
0.022500 0.106441 0.054553
0.023000 0.106418 0.054074
0.023500 0.106401 0.053715
0.024000 0.106384 0.053356
0.024500 0.106361 0.052877
0.025000 0.106344 0.052518
0.025500 0.106338 0.052398
0.026000 0.106327 0.052158
0.026500 0.106316 0.051919
0.027000 0.106304 0.051680
0.027500 0.106293 0.051440
0.028000 0.106287 0.051320
0.028500 0.106264 0.050841
0.029000 0.106253 0.050602
0.029500 0.106241 0.050362
0.030000 0.106224 0.050003
0.030500 0.106207 0.049644
0.031000 0.106190 0.049285
0.031500 0.106167 0.048806
0.032000 0.106150 0.048447
0.032500 0.106139 0.048207
0.033000 0.106123 0.047953
0.033500 0.106038 0.046554
0.034000 0.106014 0.046173
0.034500 0.106007 0.046046
0.035000 0.105991 0.045792
0.035500 0.105983 0.045664
0.036000 0.105968 0.045410
0.036500 0.105960 0.045283
0.037000 0.105921 0.044647
0.037500 0.105882 0.044012
0.038000 0.105866 0.043757
0.038500 0.105851 0.043503
0.039000 0.105812 0.042867
0.039500 0.105781 0.042359
0.040000 0.105765 0.042104
0.040500 0.105750 0.041850
0.041000 0.105734 0.041596
0.041500 0.105711 0.041214
0.042000 0.105695 0.040960
0.042500 0.105672 0.040579
0.043000 0.105625 0.039816
0.043500 0.105594 0.039307
0.044000 0.105571 0.038926
0.044500 0.105540 0.038417
0.045000 0.105508 0.037908
0.045500 0.105477 0.037400
0.046000 0.105423 0.036510
0.046500 0.105361 0.035493
0.047000 0.105298 0.034475
-0.044250 0.107366 0.059342
-0.043750 0.107467 0.061497
-0.043250 0.107507 0.062335
-0.042750 0.107597 0.064251
-0.042250 0.107658 0.065568
-0.041750 0.107692 0.066286
-0.041250 0.107760 0.067723
-0.040750 0.107810 0.068800
-0.040250 0.107838 0.069399
-0.039750 0.107872 0.070117
-0.039250 0.107917 0.071075
-0.038750 0.107951 0.071793
-0.038250 0.107974 0.072272
-0.037750 0.107990 0.072632
-0.037250 0.108019 0.073230
-0.036750 0.108064 0.074188
-0.036250 0.108097 0.074906
-0.035750 0.108120 0.075385
-0.035250 0.108142 0.075864
-0.034750 0.108165 0.076343
-0.034250 0.108182 0.076702
-0.033750 0.108199 0.077061
-0.033250 0.108221 0.077540
-0.032750 0.108244 0.078019
-0.032250 0.108260 0.078378
-0.031750 0.108272 0.078618
-0.031250 0.108283 0.078857
-0.030750 0.108294 0.079097
-0.030250 0.108311 0.079456
-0.029750 0.108322 0.079695
-0.029250 0.108334 0.079935
-0.028750 0.108345 0.080174
-0.028250 0.108356 0.080414
-0.027750 0.108367 0.080653
-0.027250 0.108379 0.080893
-0.026750 0.108390 0.081132
-0.026250 0.108401 0.081371
-0.025750 0.108412 0.081611
-0.025250 0.108424 0.081850
-0.024750 0.108429 0.081970
-0.024250 0.108435 0.082090
-0.023750 0.108435 0.082090
-0.023250 0.108441 0.082210
-0.022750 0.108446 0.082329
-0.022250 0.108452 0.082449
-0.021750 0.108457 0.082569
-0.021250 0.108457 0.082569
-0.020750 0.108463 0.082688
-0.020250 0.108469 0.082808
-0.019750 0.108474 0.082928
-0.019250 0.108480 0.083047
-0.018750 0.108480 0.083047
-0.018250 0.108486 0.083167
-0.017750 0.108491 0.083287
-0.017250 0.108502 0.083526
-0.016750 0.108502 0.083526
-0.016250 0.108514 0.083766
-0.015750 0.108519 0.083886
-0.015250 0.108519 0.083886
-0.014750 0.108531 0.084125
-0.014250 0.108536 0.084245
-0.013750 0.108531 0.084125
-0.013250 0.108542 0.084364
-0.012750 0.108542 0.084364
-0.012250 0.108542 0.084364
-0.011750 0.108547 0.084484
-0.011250 0.108542 0.084364
-0.010750 0.108536 0.084245
-0.010250 0.108531 0.084125
-0.009750 0.108514 0.083766
-0.009250 0.108491 0.083287
-0.008750 0.108474 0.082928
-0.008250 0.108446 0.082329
-0.007750 0.108384 0.081012
-0.007250 0.108373 0.080773
-0.006750 0.108356 0.080414
-0.006250 0.108339 0.080054
-0.005750 0.108322 0.079695
-0.005250 0.108311 0.079456
-0.004750 0.108294 0.079097
-0.004250 0.108283 0.078857
-0.003750 0.108272 0.078618
-0.003250 0.108255 0.078259
-0.002750 0.108244 0.078019
-0.002250 0.108227 0.077660
-0.001750 0.108210 0.077301
-0.001250 0.108187 0.076822
-0.000750 0.108165 0.076343
-0.000250 0.108148 0.075984
0.000250 0.108125 0.075505
0.000750 0.108103 0.075026
0.001250 0.108086 0.074667
0.001750 0.108064 0.074188
0.002250 0.108047 0.073829
0.002750 0.108024 0.073350
0.003250 0.108007 0.072991
0.003750 0.107979 0.072392
0.004250 0.107962 0.072033
0.004750 0.107945 0.071674
0.005250 0.107929 0.071315
0.005750 0.107900 0.070716
0.006250 0.107878 0.070237
0.006750 0.107850 0.069638
0.007250 0.107760 0.067723
0.007750 0.107748 0.067483
0.008250 0.107743 0.067364
0.008750 0.107737 0.067244
0.009250 0.107720 0.066885
0.009750 0.107715 0.066765
0.010250 0.107698 0.066406
0.010750 0.107675 0.065927
0.011250 0.107653 0.065448
0.011750 0.107636 0.065089
0.012250 0.107613 0.064610
0.012750 0.107591 0.064131
0.013250 0.107568 0.063652
0.013750 0.107540 0.063054
0.014250 0.107490 0.061976
0.014750 0.107383 0.059701
0.015250 0.107332 0.058624
0.015750 0.107310 0.058145
0.016250 0.107298 0.057905
0.016750 0.107287 0.057666
0.017250 0.107265 0.057187
0.017750 0.107253 0.056948
0.018250 0.107236 0.056588
0.018750 0.107220 0.056229
0.019250 0.107208 0.055990
0.019750 0.107197 0.055750
0.020250 0.107186 0.055511
0.020750 0.107169 0.055152
0.021250 0.107152 0.054793
0.021750 0.107141 0.054553
0.022250 0.107124 0.054194
0.022750 0.107101 0.053715
0.023250 0.107085 0.053356
0.023750 0.107068 0.052997
0.024250 0.107045 0.052518
0.024750 0.107034 0.052278
0.025250 0.107028 0.052159
0.025750 0.107017 0.051919
0.026250 0.107006 0.051680
0.026750 0.106995 0.051440
0.027250 0.106983 0.051201
0.027750 0.106972 0.050961
0.028250 0.106961 0.050722
0.028750 0.106944 0.050363
0.029250 0.106927 0.050004
0.029750 0.106916 0.049764
0.030250 0.106899 0.049405
0.030750 0.106888 0.049166
0.031250 0.106865 0.048687
0.031750 0.106843 0.048208
0.032250 0.106827 0.047954
0.032750 0.106812 0.047699
0.033250 0.106781 0.047191
0.033750 0.106719 0.046173
0.034250 0.106712 0.046046
0.034750 0.106696 0.045792
0.035250 0.106681 0.045538
0.035750 0.106673 0.045411
0.036250 0.106665 0.045283
0.036750 0.106627 0.044648
0.037250 0.106596 0.044139
0.037750 0.106581 0.043885
0.038250 0.106558 0.043504
0.038750 0.106527 0.042995
0.039250 0.106488 0.042359
0.039750 0.106481 0.042232
0.040250 0.106465 0.041978
0.040750 0.106450 0.041723
0.041250 0.106427 0.041342
0.041750 0.106404 0.040961
0.042250 0.106380 0.040579
0.042750 0.106350 0.040071
0.043250 0.106311 0.039435
0.043750 0.106288 0.039053
0.044250 0.106250 0.038418
0.044750 0.106219 0.037909
0.045250 0.106188 0.037401
0.045750 0.106134 0.036511
0.046250 0.106088 0.035748
0.046750 0.106042 0.034985
-0.044000 0.108079 0.059701
-0.043500 0.108162 0.061497
-0.043000 0.108201 0.062335
-0.042500 0.108223 0.062814
-0.042000 0.108356 0.065688
-0.041500 0.108384 0.066286
-0.041000 0.108451 0.067723
-0.040500 0.108517 0.069159
-0.040000 0.108528 0.069399
-0.039500 0.108556 0.069998
-0.039000 0.108612 0.071195
-0.038500 0.108639 0.071793
-0.038000 0.108662 0.072272
-0.037500 0.108678 0.072631
-0.037000 0.108695 0.072991
-0.036500 0.108750 0.074188
-0.036000 0.108784 0.074906
-0.035500 0.108806 0.075385
-0.035000 0.108828 0.075864
-0.034500 0.108850 0.076343
-0.034000 0.108867 0.076702
-0.033500 0.108889 0.077181
-0.033000 0.108906 0.077540
-0.032500 0.108939 0.078258
-0.032000 0.108956 0.078618
-0.031500 0.108967 0.078857
-0.031000 0.108978 0.079096
