0.038750 0.082373 0.059929
-0.008000 0.034777 0.075441
0.052250 0.076081 0.049972
0.055750 0.116329 0.013147
0.056500 0.099380 0.031161
-0.004500 0.067616 0.073228
-0.028500 0.147717 0.087228
-0.035250 0.037586 0.056821
0.022000 0.058650 0.050299
-0.002250 0.037255 0.079037
0.029750 0.089111 0.057062
0.014250 0.089708 0.066405
0.020000 0.036109 0.062469
-0.070750 0.161634 0.012347
0.022000 0.037519 0.062585
-0.003500 0.163868 0.012724
-0.068750 0.170587 0.016773
0.046500 0.103993 0.036381
-0.026000 0.144972 0.088853
-0.026750 0.147037 0.088060
0.054250 0.038783 0.028252
-0.065750 0.164731 0.021733
0.029500 0.053170 0.051369
-0.025500 0.092943 0.085091
0.030250 0.059482 0.051741
0.013500 0.097367 0.067244
0.043000 0.088374 0.056462
0.049000 0.099599 0.034467
0.032000 0.058818 0.052100
0.001250 0.123777 0.095310
0.008000 0.059939 0.064104
0.000000 0.147552 0.074528
0.009000 0.041738 0.075784
-0.023000 0.109128 0.082329
-0.025250 0.140154 0.089079
0.035000 0.058874 0.052700
0.008000 0.107057 0.067483
-0.014750 0.107147 0.083647
-0.020750 0.107112 0.082928
-0.037500 0.155804 0.057502
0.002500 0.094026 0.080539
-0.044250 0.107366 0.059342
-0.046000 0.102509 0.059700
0.021500 0.068758 0.054276
0.004000 0.107320 0.072991
-0.020000 0.036082 0.062229
-0.019500 0.167114 0.036577
-0.023500 0.133986 0.091344
0.007000 0.040590 0.077948
-0.039750 0.107872 0.070117
-0.004500 0.102281 0.081733
0.014000 0.086542 0.070477
-0.012500 0.037001 0.070512
-0.003000 0.039247 0.078312
0.049250 0.083241 0.052501
-0.047500 0.088235 0.054306
-0.008250 0.103019 0.082810
-0.005250 0.100301 0.082931
0.015250 0.054764 0.060497
0.044000 0.092434 0.054308
0.030250 0.119154 0.040973
0.015500 0.037941 0.066427
-0.028500 0.102351 0.083050
0.012000 0.051506 0.062786
-0.016750 0.084189 0.085575
0.045000 0.065737 0.051512
0.000750 0.052240 0.063144
0.033000 0.049036 0.052223
0.041750 0.083682 0.058852
-0.012750 0.138833 0.096325
-0.011000 0.088955 0.086291
0.044250 0.063698 0.052108
0.031000 0.061596 0.051984
-0.016750 0.118528 0.100066
-0.045250 0.099218 0.063172
0.018250 0.097749 0.061735
0.061750 0.088923 0.034580
0.015000 0.035129 0.066195
0.054000 0.096994 0.038026
-0.042250 0.165049 0.045593
-0.009250 0.159074 0.035072
-0.026250 0.114018 0.085200
-0.038250 0.084680 0.073232
-0.028000 0.088781 0.083655
-0.042250 0.163640 0.048134
0.045500 0.074332 0.054404
0.016250 0.071561 0.063034
0.070000 0.067097 -0.014366
-0.035500 0.153129 0.075123
-0.036250 0.141394 0.080641
-0.036750 0.074755 0.068553
-0.033000 0.077153 0.072991
-0.071750 0.180952 0.022717
0.051500 0.044555 0.035726
0.048500 0.037470 0.036120
-0.034750 0.086322 0.077306
0.043000 0.124784 0.023444
0.032500 0.080228 0.058968
-0.037250 0.133089 0.081123
-0.018000 0.134046 0.096440
0.012000 0.088045 0.072514
0.050500 0.116026 0.021404
-0.044250 0.091062 0.065926
0.050750 0.091432 0.049397
-0.036250 0.094630 0.079221
-0.030500 0.136629 0.084594
-0.039750 0.097123 0.075028
-0.069500 0.160936 0.015140
-0.030750 0.151131 0.083992
0.033500 0.099198 0.050000
0.060500 0.045222 0.013414
0.044250 0.083590 0.057534
-0.069500 0.162413 0.014757
-0.042250 0.116319 0.074546
-0.034500 0.147659 0.082795
0.005000 0.112541 0.066406
-0.034750 0.112422 0.079694
0.019750 0.058234 0.053299
-0.035750 0.144185 0.081838
0.054000 0.050667 0.040022
0.010250 0.090161 0.073472
0.017750 0.084023 0.063765
0.047000 0.037713 0.038403
0.050750 0.102945 0.031039
0.013000 0.083821 0.070715
0.042750 0.047754 0.046495
-0.060500 0.151059 0.030896
-0.036750 0.129012 0.083997
0.057750 0.090763 0.040182
-0.002500 0.131335 0.098140
-0.065750 0.160303 0.021488
0.006750 0.037188 0.078437
-0.011250 0.057128 0.056298
-0.002250 0.058991 0.061342
-0.046500 0.151487 0.049120
0.065250 0.064716 0.015660
0.021500 0.084415 0.059452
-0.031000 0.143549 0.085312
-0.066000 0.155203 0.022258
0.000750 0.035928 0.079521
-0.020500 0.162840 0.042933
0.044750 0.079351 0.056450
-0.041750 0.117788 0.077059
0.018500 0.113315 0.051563
0.067750 0.078019 0.021987
-0.031000 0.129822 0.088627
0.017000 0.076471 0.064118
-0.052250 0.163596 0.045088
0.013250 0.096820 0.069759
-0.007750 0.125218 0.099615
-0.019750 0.125202 0.098822
0.055250 0.058674 0.042941
0.031250 0.093169 0.054907
0.071250 0.055404 -0.007192
0.039500 0.109974 0.041473
-0.041500 0.121254 0.078255
-0.067250 0.155887 0.020226
0.037000 0.050248 0.050297
0.042250 0.069514 0.054996
0.005500 0.058539 0.063863
0.008000 0.057172 0.063981
-0.031500 0.045094 0.054877
0.065250 0.081207 0.026435
-0.005750 0.060361 0.061224
-0.043500 0.080438 0.061844
-0.045750 0.156475 0.051388
-0.033750 0.100190 0.080896
0.031500 0.071609 0.055120
0.021250 0.072448 0.056919
-0.041250 0.102407 0.071076
0.029750 0.115079 0.044273
0.015500 0.109369 0.057427
0.002000 0.125799 0.094290
-0.029000 0.062237 0.059065
0.016500 0.056745 0.059539
-0.006750 0.041059 0.075905
0.029000 0.104884 0.051320
0.033000 0.038889 0.062341
-0.029250 0.106985 0.080294
0.001000 0.131285 0.094629
-0.009750 0.180952 0.018784
-0.041500 0.079351 0.065799
0.027500 0.054531 0.051012
-0.011250 0.182439 0.010788
0.011750 0.095553 0.071675
0.023500 0.105048 0.054672
-0.071750 0.173503 0.009281
0.034500 0.054636 0.052092
0.024750 0.059393 0.050780
0.047750 0.039740 0.037384
-0.001250 0.123798 0.096330
0.035750 0.128382 0.022804
-0.039750 0.103882 0.072991
-0.018000 0.037439 0.061865
-0.016500 0.038771 0.061261
0.010750 0.092822 0.072035
0.031750 0.086420 0.058376
0.019500 0.066360 0.058711
-0.000750 0.164528 0.006504
0.015250 0.042559 0.064012
-0.012500 0.047630 0.052227
0.049000 0.071317 0.051522
0.040000 0.097720 0.048682
0.020500 0.064585 0.054269
0.033250 0.048529 0.054146
0.000000 0.098115 0.080417
-0.037750 0.116615 0.082086
-0.020750 0.063783 0.068547
0.005250 0.034330 0.077604
0.019250 0.048774 0.056548
-0.008250 0.057139 0.056418
-0.000500 0.037985 0.079395
-0.042250 0.131533 0.074539
-0.013750 0.063837 0.069147
-0.018750 0.136088 0.095420
-0.025500 0.090201 0.084733
-0.033250 0.116760 0.085797
0.045500 0.101189 0.037013
0.020000 0.046870 0.058475
-0.018500 0.110566 0.084004
-0.007000 0.048000 0.055829
-0.012250 0.063826 0.069027
-0.025000 0.042747 0.059208
0.014500 0.071049 0.065193
0.006750 0.101208 0.074429
0.042000 0.058785 0.051740
-0.008500 0.045771 0.061361
-0.009250 0.045721 0.054155
0.014500 0.040687 0.066059
-0.038250 0.107974 0.072272
-0.002750 0.100236 0.081734
0.032500 0.042861 0.060288
-0.039000 0.081154 0.071673
-0.072500 0.177278 0.025769
-0.002000 0.163826 0.009678
-0.014500 0.175809 0.025899
0.060750 0.055805 0.026966
-0.060750 0.158959 0.028726
0.052250 0.089959 0.048318
-0.015250 0.036794 0.062347
-0.005250 0.065324 0.070468
0.037500 0.076019 0.058243
-0.035000 0.074174 0.069872
-0.042000 0.126732 0.077056
-0.001000 0.092772 0.082336
-0.011500 0.110929 0.093160
-0.004750 0.161786 0.021993
0.037500 0.077468 0.059084
0.004500 0.048125 0.070602
-0.028500 0.094259 0.084371
0.025250 0.084912 0.056577
-0.024500 0.101060 0.084368
0.007500 0.093786 0.076586
0.033750 0.082339 0.059450
-0.031250 0.094874 0.083293
0.038000 0.124997 0.028271
0.017750 0.127276 0.030935
-0.023250 0.063685 0.067467
0.063750 0.067234 0.028353
0.072750 0.056397 -0.011785
0.011000 0.116301 0.056232
-0.034000 0.075647 0.071192
-0.023500 0.099726 0.084848
0.002000 0.065798 0.068068
-0.001500 0.047049 0.073608
-0.044750 0.153633 0.050913
-0.068500 0.171433 0.030096
0.058500 0.038564 0.019247
0.009500 0.115008 0.058865
-0.006750 0.097666 0.084489
-0.009000 0.044035 0.071334
-0.035250 0.120852 0.086274
-0.025750 0.081219 0.081862
-0.030250 0.069238 0.068190
0.001250 0.115636 0.092820
-0.030000 0.122989 0.089987
0.020250 0.052443 0.051131
0.030750 0.124535 0.034114
-0.011500 0.127264 0.099614
0.001500 0.040695 0.078908
-0.023750 0.069694 0.073589
-0.031000 0.085873 0.080661
-0.006750 0.090927 0.085451
-0.013750 0.172185 0.032886
0.042500 0.127407 0.016836
0.007500 0.115080 0.060661
0.055500 0.040792 0.026855
0.050750 0.104272 0.029388
-0.056500 0.171484 0.036567
0.053500 0.102198 0.030529
0.030750 0.121838 0.037801
-0.010000 0.095683 0.085449
-0.053000 0.171487 0.036948
-0.012750 0.170743 0.035046
-0.038500 0.097911 0.076825
0.010000 0.104293 0.067483
-0.027000 0.070306 0.072749
0.060750 0.065110 0.036351
-0.016750 0.172174 0.031363
-0.022000 0.123156 0.097689
0.021500 0.081716 0.060408
-0.042000 0.087990 0.071675
0.030750 0.120479 0.039069
-0.057000 0.170045 0.038474
0.004250 0.097267 0.077543
-0.017750 0.169288 0.035430
-0.007500 0.181691 0.017641
-0.041250 0.090145 0.073233
-0.019000 0.119185 0.099613
-0.056500 0.152633 0.036607
-0.012250 0.164990 0.041151
-0.034000 0.094084 0.081497
0.053500 0.071113 0.049003
0.024000 0.117230 0.044910
-0.053000 0.167182 0.042542
-0.017250 0.121211 0.100407
0.014750 0.092506 0.066884
0.002000 0.092705 0.081258
-0.001500 0.102218 0.080536
0.045500 0.119150 0.026365
-0.024000 0.090217 0.084972
-0.029250 0.134610 0.086869
-0.028750 0.135967 0.085911
-0.004750 0.057369 0.058819
0.058500 0.051586 0.034698
-0.009250 0.122527 0.099501
-0.043750 0.166468 0.043432
0.060000 0.109683 0.011096
-0.015750 0.086917 0.086053
-0.030250 0.111076 0.080173
-0.028000 0.106343 0.081133
-0.016250 0.089612 0.086051
-0.024500 0.095676 0.085329
-0.056500 0.159803 0.035070
0.003500 0.085832 0.080062
0.000500 0.090069 0.082696
-0.028750 0.098986 0.083770
-0.026750 0.105708 0.082091
0.003000 0.083095 0.079703
-0.025250 0.118359 0.093839
-0.004250 0.041190 0.077106
-0.055250 0.149009 0.035216
0.020250 0.079703 0.061244
-0.027000 0.117588 0.090329
-0.032500 0.153172 0.080157
0.001500 0.131253 0.092364
0.003250 0.115595 0.091462
-0.023250 0.092278 0.085331
-0.008750 0.160488 0.032403
0.019500 0.122607 0.039072
-0.022250 0.093645 0.085450
-0.022500 0.097042 0.085448
0.019250 0.078331 0.061363
0.056000 0.067816 0.043207
-0.009000 0.092980 0.085690
-0.007250 0.159051 0.033803
0.046250 0.045875 0.041809
0.061500 0.052035 0.024435
0.019500 0.121309 0.041611
0.045500 0.125928 0.016330
-0.012000 0.098380 0.085088
0.036750 0.118965 0.037162
0.055250 0.068660 0.044858
0.069000 0.065864 -0.011801
-0.027250 0.134638 0.088174
0.071250 0.053955 -0.007189
-0.020500 0.095697 0.085688
-0.004000 0.156742 0.026698
-0.008000 0.053325 0.052931
-0.008000 0.051884 0.052575
-0.021750 0.117107 0.097122
0.063750 0.088606 0.030380
0.015500 0.120048 0.044785
0.035000 0.114229 0.041604
-0.027500 0.121668 0.091346
0.026750 0.052419 0.050891
0.052000 0.120030 0.014681
0.038250 0.126937 0.022933
0.003000 0.117670 0.093272
-0.017250 0.062258 0.066866
0.037250 0.034836 0.057310
0.037500 0.089847 0.057661
-0.019250 0.142923 0.092928
0.038000 0.046162 0.051631
0.054000 0.106167 0.025196
0.023750 0.052384 0.050531
0.017500 0.044235 0.060044
-0.012000 0.051692 0.050653
-0.024000 0.038810 0.061621
0.015500 0.118775 0.047579
0.016500 0.038836 0.061861
-0.013750 0.049630 0.051140
0.004750 0.064867 0.065308
0.066000 0.067964 0.012095
-0.002250 0.142907 0.088966
0.036250 0.123056 0.033228
-0.015250 0.063847 0.069267
-0.015500 0.050321 0.051018
0.022000 0.074408 0.055364
0.046500 0.069972 0.052119
-0.004500 0.064522 0.069148
0.017500 0.048160 0.057390
-0.028000 0.120295 0.090441
-0.012000 0.135428 0.097798
-0.004000 0.047640 0.065920
-0.024500 0.065893 0.069148
-0.000500 0.140839 0.088513
-0.032250 0.156507 0.057021
-0.007000 0.054928 0.055094
-0.016250 0.065356 0.070828
0.040750 0.070982 0.055958
-0.040250 0.095701 0.074190
-0.026750 0.042085 0.059570
-0.030000 0.040091 0.060537
0.035500 0.080298 0.059927
0.011750 0.045563 0.066046
-0.003250 0.125198 0.098595
0.005250 0.051014 0.064829
-0.021250 0.038151 0.061983
-0.007250 0.066944 0.073348
-0.010000 0.066188 0.072508
0.036750 0.036423 0.058986
0.066500 0.089973 0.019821
-0.001000 0.121784 0.096330
-0.058000 0.156858 0.032537
-0.039250 0.094385 0.075149
-0.019750 0.068319 0.073469
0.064750 0.064837 0.017056
-0.039750 0.074433 0.064476
-0.022250 0.089550 0.085093
-0.016250 0.119874 0.100406
0.040000 0.085759 0.058855
0.000000 0.068941 0.072749
0.036250 0.083748 0.059811
0.015750 0.119404 0.046055
-0.019500 0.102420 0.084367
-0.024000 0.128528 0.093610
-0.017250 0.086909 0.085933
-0.038750 0.152362 0.067214
0.010750 0.069066 0.066151
-0.012500 0.088955 0.086291
-0.022000 0.099733 0.084968
-0.038000 0.095171 0.076825
-0.035250 0.142810 0.082437
0.011000 0.057149 0.063741
0.042000 0.126114 0.020648
0.003000 0.057114 0.063381
0.047500 0.048187 0.043704
0.037000 0.057492 0.052818
-0.006500 0.070658 0.076948
0.044000 0.096354 0.049399
-0.003500 0.153121 0.074165
0.045500 0.048385 0.045732
0.049000 0.097440 0.044513
-0.019750 0.088233 0.085573
0.026500 0.115832 0.045163
0.037250 0.126996 0.024330
0.047000 0.097562 0.046294
0.007750 0.119743 0.054797
-0.009000 0.070708 0.077548
0.036500 0.126359 0.026363
0.031000 0.127875 0.028012
-0.010500 0.090294 0.086170
-0.004500 0.150408 0.080997
0.040000 0.050152 0.049337
-0.014750 0.089620 0.086171
-0.024000 0.125805 0.094630
-0.013750 0.052384 0.050531
0.049500 0.075511 0.051649
0.009750 0.122404 0.050610
-0.002000 0.119089 0.095990
-0.036000 0.081416 0.075269
0.060750 0.087684 0.036996
0.029000 0.051740 0.051134
-0.030750 0.141471 0.084953
0.003250 0.075390 0.076588
0.019000 0.051920 0.052935
0.034750 0.047298 0.055832
0.000250 0.119752 0.095650
-0.031750 0.041816 0.057049
-0.008500 0.117825 0.098820
0.051500 0.059641 0.045859
-0.002500 0.134052 0.096893
-0.008000 0.150442 0.084232
-0.020500 0.072068 0.077547
-0.003250 0.072747 0.077547
0.047250 0.104562 0.034093
-0.054500 0.151263 0.039275
0.031750 0.123149 0.035260
0.007250 0.111772 0.064610
-0.024750 0.036767 0.062107
0.021000 0.040285 0.062337
0.021000 0.055857 0.050294
-0.026250 0.104388 0.082930
-0.017000 0.036109 0.062469
0.023250 0.062174 0.050666
0.046500 0.060124 0.051142
0.008250 0.053719 0.063981
0.050250 0.109888 0.027491
-0.021250 0.090919 0.085331
-0.013250 0.107153 0.083766
-0.020500 0.092973 0.085570
-0.019500 0.076408 0.080904
0.052250 0.039062 0.030915
0.022750 0.056555 0.050295
0.026500 0.061530 0.051264
0.027250 0.059426 0.051140
-0.015000 0.055891 0.050654
0.022750 0.069334 0.052837
0.003750 0.080902 0.077546
-0.031750 0.090743 0.082576
-0.038750 0.083255 0.072393
0.032750 0.060931 0.052343
0.012250 0.044284 0.067130
-0.007750 0.045702 0.067366
0.018250 0.038190 0.062343
0.047250 0.076364 0.053688
0.027000 0.122560 0.038056
0.006500 0.125651 0.043131
0.026750 0.041061 0.063056
-0.000250 0.049583 0.064473
0.039500 0.057470 0.052577
0.039250 0.087797 0.058258
0.030250 0.073732 0.055602
0.030750 0.075177 0.056324
0.036500 0.068879 0.055715
0.049500 0.109324 0.030159
0.032500 0.075954 0.057404
0.056250 0.088182 0.043488
-0.016000 0.132693 0.097573
-0.017750 0.138824 0.095193
-0.034000 0.153161 0.078839
0.042500 0.038632 0.047029
-0.037750 0.104022 0.075745
-0.024250 0.118393 0.095084
0.034750 0.078169 0.059205
-0.005500 0.046548 0.068805
-0.017000 0.140875 0.094626
-0.010250 0.129313 0.099839
-0.005000 0.135422 0.097232
-0.042000 0.092111 0.071675
-0.042000 0.076166 0.060162
-0.014750 0.123884 0.100408
0.064500 0.090235 0.023384
-0.019500 0.038797 0.061501
-0.014000 0.136787 0.097005
0.044750 0.040364 0.043345
0.057250 0.081204 0.043987
-0.000750 0.145587 0.083035
0.062000 0.093230 0.025044
0.005500 0.046962 0.072767
-0.001750 0.042598 0.077342
0.046500 0.098792 0.043624
0.045250 0.099473 0.043243
0.045250 0.044291 0.040164
0.004000 0.040655 0.078548
0.047750 0.101777 0.035106
0.048500 0.107991 0.031810
-0.008500 0.131356 0.099612
0.054500 0.043665 0.026852
0.056500 0.043448 0.024696
-0.022500 0.136742 0.092250
0.061500 0.078480 0.036356
0.055000 0.062364 0.044975
-0.025000 0.061140 0.062184
-0.008500 0.127272 0.100067
-0.006250 0.129313 0.099839
-0.006000 0.125900 0.099614
0.047000 0.109536 0.033846
0.063000 0.056361 0.025317
0.053750 0.057283 0.043066
0.061500 0.075728 0.037117
0.055000 0.110247 0.021137
0.007000 0.061317 0.064105
0.010000 0.061317 0.064105
0.054250 0.035887 0.028002
0.011000 0.064093 0.064347
0.057250 0.109274 0.016687
0.010000 0.065502 0.064709
0.038500 0.115492 0.038683
0.048000 0.105197 0.032822
0.013250 0.068975 0.065071
-0.026750 0.083934 0.081980
0.042750 0.118721 0.032207
-0.038250 0.113738 0.078496
0.039250 0.122888 0.029544
0.006000 0.068450 0.066990
0.035250 0.125757 0.029159
0.038000 0.120959 0.034243
-0.036250 0.115275 0.082685
-0.039750 0.091648 0.075269
0.068250 0.078689 0.012701
-0.043500 0.100126 0.067124
-0.054000 0.149792 0.037754
-0.036000 0.113115 0.079933
-0.052250 0.153465 0.041683
-0.048500 0.154256 0.045109
-0.031250 0.070800 0.070470
0.041750 0.046203 0.045104
-0.021750 0.101747 0.084487
-0.012750 0.104424 0.083648
-0.009500 0.168560 0.035558
-0.070750 0.176550 0.027801
0.019750 0.090830 0.062213
0.002750 0.070979 0.072629
-0.004500 0.119098 0.096330
-0.035250 0.077754 0.071912
0.066500 0.062093 0.010081
-0.037500 0.086921 0.076108
-0.027500 0.071781 0.074069
-0.007750 0.093652 0.085570
0.017250 0.120656 0.042753
0.068750 0.079950 0.010662
-0.002000 0.069012 0.073589
0.013750 0.111499 0.058266
-0.010750 0.125222 0.099841
0.035500 0.116963 0.039701
-0.024250 0.071168 0.074909
-0.010750 0.107147 0.083647
-0.026250 0.103057 0.083529
0.024250 0.119248 0.042879
-0.030750 0.078156 0.077187
-0.029750 0.115411 0.086037
-0.021500 0.074920 0.079226
-0.017750 0.095025 0.085808
-0.016750 0.090950 0.085810
-0.011250 0.093674 0.085929
-0.020750 0.112969 0.093726
-0.025250 0.107077 0.082210
-0.023500 0.079189 0.081862
0.044250 0.110401 0.036516
-0.002750 0.086771 0.083896
-0.023250 0.122458 0.096443
-0.007500 0.083420 0.084258
-0.017000 0.076445 0.081384
-0.008750 0.086877 0.085454
-0.006500 0.077836 0.081863
-0.039000 0.126871 0.081723
-0.027500 0.086005 0.082578
0.017250 0.072872 0.062196
-0.027500 0.052122 0.040399
0.057500 0.071895 0.041688
-0.013000 0.123215 0.100408
-0.013750 0.121213 0.100520
-0.027750 0.058443 0.040405
0.053000 0.052468 0.044073
0.046250 0.038612 0.040177
0.043000 0.107028 0.039563
-0.013500 0.084880 0.085815
-0.010750 0.041914 0.070980
0.038500 0.039572 0.055734
0.029750 0.111015 0.047320
0.062750 0.067464 0.031019
0.038750 0.044292 0.053919
0.017000 0.049548 0.057266
0.066250 0.082440 0.024144
-0.003750 0.097598 0.083292
0.068250 0.075875 0.013090
-0.033750 0.036330 0.058146
0.052000 0.063991 0.047515
-0.014000 0.119206 0.100406
0.066250 0.085112 0.022104
0.057000 0.095218 0.032935
-0.008250 0.099020 0.084369
0.019750 0.064123 0.056908
-0.017250 0.097735 0.085687
0.050000 0.037227 0.033836
-0.037250 0.138544 0.076810
-0.032750 0.112468 0.080771
-0.045250 0.127145 0.067360
0.017250 0.074319 0.063037
0.047000 0.040570 0.038524
0.013750 0.053492 0.061699
-0.018250 0.055135 0.050052
-0.018500 0.158599 0.050305
-0.039750 0.128901 0.080047
-0.041500 0.137714 0.070343
-0.044250 0.152208 0.050197
-0.035750 0.087674 0.077186
0.051000 0.042847 0.032939
-0.043750 0.089885 0.069160
0.029000 0.060157 0.051502
-0.046500 0.099763 0.060418
0.061500 0.081244 0.035721
-0.039000 0.150277 0.068774
-0.044000 0.148666 0.050923
-0.019750 0.140185 0.093947
-0.042750 0.116268 0.073229
-0.005750 0.170494 0.005311
-0.042250 0.132902 0.073580
-0.042750 0.138345 0.066989
0.059500 0.046798 0.014682
-0.043250 0.125957 0.074423
-0.025250 0.127829 0.092818
-0.000250 0.149628 0.073328
-0.020250 0.157889 0.050426
-0.043250 0.119048 0.074066
-0.040250 0.083103 0.070236
0.005750 0.053719 0.063981
0.001500 0.128536 0.094063
-0.025250 0.126463 0.093158
-0.020750 0.133338 0.094515
-0.042750 0.120468 0.075383
0.027250 0.101537 0.054431
0.061250 0.082120 0.037884
0.011000 0.079778 0.071553
-0.035750 0.148332 0.081237
-0.042750 0.099585 0.069878
0.061500 0.072957 0.037624
-0.037000 0.157209 0.056181
0.060000 0.071723 0.039656
0.050250 0.050383 0.044459
-0.040000 0.155792 0.055704
0.062000 0.075508 0.034448
-0.046500 0.082721 0.055017
0.057000 0.037639 0.024194
0.022000 0.092848 0.061135
0.053500 0.085001 0.047682
0.062250 0.041330 -0.002587
-0.013000 0.153191 0.082434
0.021500 0.074539 0.057042
0.055000 0.036497 0.026986
0.055250 0.065823 0.044473
-0.013750 0.053785 0.050530
-0.009500 0.153174 0.080397
0.053000 0.058066 0.043954
0.054500 0.063810 0.045485
0.057500 0.060710 0.042183
0.060500 0.084350 0.039412
-0.009500 0.151811 0.082794
-0.002000 0.148985 0.077882
0.041500 0.038910 0.049612
0.053750 0.078751 0.048299
0.051250 0.034906 0.032191
0.058750 0.106425 0.017443
-0.022000 0.153199 0.083393
-0.040500 0.141880 0.068782
0.052750 0.061799 0.046496
0.020500 0.070496 0.058476
0.050000 0.035813 0.033966
-0.013500 0.128622 0.099274
-0.044750 0.125776 0.068439
0.047750 0.038317 0.037387
-0.009500 0.150454 0.085311
0.018750 0.065783 0.060030
0.055750 0.052730 0.039386
-0.044000 0.104070 0.063053
-0.040750 0.092910 0.073472
0.015750 0.095110 0.064130
0.056750 0.093517 0.039039
-0.036750 0.038453 0.051895
-0.006250 0.153829 0.075603
0.055750 0.077238 0.046905
0.055750 0.092358 0.042601
0.015750 0.097904 0.064489
0.053750 0.089798 0.046162
-0.030250 0.092173 0.083654
0.006750 0.123816 0.050609
-0.010750 0.152502 0.082794
0.016750 0.070122 0.062314
-0.021500 0.151837 0.085550
-0.037750 0.137156 0.076930
-0.003250 0.117071 0.095877
-0.040750 0.121986 0.079691
-0.032000 0.150438 0.083873
-0.032500 0.149063 0.084472
-0.030500 0.149078 0.085790
-0.025250 0.123746 0.093838
0.013000 0.076628 0.066156
0.041000 0.102886 0.041339
-0.034500 0.146272 0.082556
-0.042250 0.128760 0.075020
0.023750 0.094843 0.059578
0.017750 0.040919 0.061735
0.009250 0.052312 0.063865
0.023000 0.038928 0.062701
-0.021250 0.104430 0.083768
-0.036750 0.138573 0.078247
0.036000 0.038614 0.059820
0.047500 0.088103 0.052270
0.019250 0.059760 0.054742
0.034750 0.040815 0.060775
0.009500 0.040380 0.076027
0.035500 0.035856 0.060189
0.035000 0.037334 0.060905
-0.035250 0.038922 0.056217
0.008000 0.041842 0.076744
-0.029750 0.100308 0.083051
0.045750 0.086204 0.055142
0.003000 0.054369 0.063499
0.017750 0.064484 0.060988
0.004500 0.053010 0.063863
-0.028750 0.066274 0.065669
-0.030750 0.067619 0.065310
-0.037750 0.131706 0.081243
0.017750 0.068650 0.061233
-0.002750 0.094874 0.083293
0.018250 0.072795 0.061237
0.005000 0.074556 0.074669
0.026000 0.087002 0.056700
-0.064500 0.165500 0.024270
0.012000 0.078320 0.070353
-0.037000 0.082735 0.074670
0.011250 0.084688 0.073352
0.002500 0.085898 0.081021
0.021250 0.079430 0.057529
0.012750 0.085964 0.072034
0.011500 0.040053 0.073026
-0.006000 0.127268 0.099840
-0.039000 0.089644 0.076108
-0.035500 0.129733 0.085074
0.011250 0.090084 0.072275
0.025250 0.090529 0.057421
0.046500 0.090982 0.053469
0.006500 0.092512 0.078144
-0.036500 0.098027 0.078860
-0.037000 0.099368 0.078381
-0.037750 0.101324 0.076584
-0.036000 0.100768 0.078979
0.000750 0.101471 0.079338
-0.035000 0.102155 0.079338
-0.070250 0.164611 0.012722
-0.007000 0.153154 0.078000
-0.044250 0.150800 0.051398
-0.005250 0.152459 0.078000
0.020750 0.075354 0.058602
-0.042750 0.110301 0.062695
0.010500 0.110995 0.062695
0.008750 0.113043 0.061857
0.016250 0.111354 0.054914
0.015000 0.113418 0.054077
-0.041000 0.139091 0.069264
0.016750 0.114036 0.052042
0.009500 0.117702 0.056353
-0.070750 0.167564 0.011068
-0.071000 0.165336 0.011325
-0.037250 0.124888 0.084716
0.040500 0.081639 0.059329
0.020250 0.112583 0.050845
-0.041750 0.096972 0.072393
-0.012750 0.179474 0.019548
-0.070000 0.180216 0.023987
-0.005250 0.037148 0.078077
0.018750 0.109939 0.054554
-0.038000 0.091106 0.077545
-0.045000 0.088939 0.065207
0.018500 0.107913 0.056110
-0.064250 0.154543 0.025305
-0.024000 0.139475 0.090438
-0.010500 0.181692 0.016626
-0.044000 0.080342 0.060526
-0.065750 0.157377 0.022128
-0.035250 0.096025 0.079699
0.026000 0.100882 0.055269
0.005750 0.055094 0.063859
-0.013500 0.125906 0.099954
0.011000 0.058539 0.063863
0.007000 0.055794 0.063980
-0.006500 0.036390 0.077478
0.012500 0.105587 0.065687
-0.039750 0.117896 0.079931
-0.043500 0.118286 0.072032
0.019750 0.088071 0.062451
0.049500 0.092172 0.049996
-0.008000 0.178741 0.022341
0.033500 0.095156 0.052992
0.037000 0.095170 0.053231
-0.024750 0.137403 0.089306
-0.009000 0.171450 0.032253
-0.026500 0.125760 0.092252
-0.041000 0.104413 0.069878
-0.038000 0.105997 0.074069
-0.046500 0.098371 0.060418
-0.069000 0.178748 0.026020
-0.046000 0.097115 0.062813
-0.035250 0.108142 0.075864
-0.012000 0.035652 0.070876
0.006000 0.084233 0.076587
0.005000 0.035143 0.078682
-0.012250 0.040291 0.068822
0.003500 0.103367 0.076344
-0.016250 0.169300 0.036699
0.005000 0.091227 0.079462
-0.001750 0.111504 0.090331
-0.011250 0.173632 0.030471
0.001500 0.103447 0.077901
-0.049750 0.169333 0.040125
-0.022250 0.112871 0.090783
0.014000 0.049951 0.061229
0.066250 0.086570 0.022486
0.045750 0.034367 0.040314
-0.018250 0.166418 0.039244
0.046500 0.055695 0.048613
0.068250 0.069128 -0.016256
0.052750 0.034645 0.029780
-0.039000 0.092408 0.076467
-0.021250 0.056406 0.048734
0.066250 0.078225 0.024531
-0.011500 0.105099 0.083528
0.007500 0.091083 0.077186
-0.015250 0.170741 0.034792
0.019500 0.056065 0.052455
0.058750 0.041005 0.021909
0.057250 0.106583 0.020112
0.050000 0.107819 0.028886
0.000500 0.128569 0.096102
-0.040750 0.119219 0.078734
-0.060500 0.162650 0.030368
-0.061250 0.164842 0.030109
-0.054500 0.170048 0.038855
0.069250 0.049942 -0.004073
-0.061250 0.161893 0.028846
-0.058250 0.169319 0.038602
-0.036750 0.091880 0.078982
0.013250 0.080276 0.069036
-0.059750 0.160458 0.030626
-0.053750 0.169333 0.040125
-0.005250 0.093615 0.084971
0.037500 0.123650 0.030432
0.005000 0.121676 0.091686
-0.018750 0.160746 0.047634
0.025000 0.129169 0.024327
0.018500 0.057856 0.056659
-0.048000 0.167190 0.043176
-0.046500 0.167190 0.043176
0.014000 0.087895 0.070238
-0.044000 0.077468 0.059084
-0.014750 0.092308 0.085810
-0.040000 0.124070 0.080767
-0.051000 0.165757 0.044449
-0.048000 0.165765 0.045083
-0.027750 0.123696 0.091459
0.018000 0.059446 0.058822
-0.003500 0.156694 0.024287
-0.016750 0.165003 0.042166
-0.053000 0.165744 0.043433
-0.013500 0.090294 0.086170
-0.006750 0.166132 0.015639
-0.065250 0.167705 0.024012
-0.005750 0.169020 0.007893
-0.047000 0.164345 0.046990
-0.012000 0.091644 0.086050
-0.069250 0.169088 0.014872
0.018250 0.061622 0.059905
-0.022750 0.060494 0.062664
-0.053000 0.161430 0.045347
-0.024250 0.048174 0.050664
0.019500 0.062129 0.057865
-0.032500 0.099560 0.081854
-0.004500 0.110824 0.090218
-0.003750 0.089479 0.084014
0.021000 0.060190 0.051862
0.002250 0.063415 0.064467
0.044500 0.071492 0.053680
-0.009000 0.156986 0.039011
-0.003500 0.158202 0.027458
-0.022000 0.061317 0.064105
0.024250 0.047484 0.057633
0.069000 0.054968 -0.004355
-0.037000 0.040382 0.050208
0.019000 0.069251 0.060154
0.001500 0.050268 0.064351
-0.038250 0.071208 0.058717
0.018750 0.071365 0.060636
0.034250 0.048345 0.052345
-0.002250 0.065228 0.069388
-0.053500 0.154132 0.039524
-0.012250 0.157879 0.048148
-0.028000 0.096979 0.084370
0.016000 0.044487 0.062446
0.021250 0.069554 0.055476
0.043500 0.075825 0.055725
-0.019500 0.063031 0.067827
-0.005500 0.055162 0.057496
0.000500 0.064308 0.066748
-0.000750 0.065154 0.068548
0.035750 0.046020 0.057036
-0.004500 0.046886 0.072047
0.013250 0.042931 0.067494
-0.002000 0.088781 0.083655
0.021500 0.071667 0.055839
0.001500 0.047099 0.074088
-0.022500 0.133999 0.092477
-0.012750 0.065398 0.071308
0.006250 0.120936 0.088968
-0.028500 0.070226 0.071790
-0.014250 0.068474 0.075268
0.002250 0.068083 0.070709
-0.011750 0.066955 0.073468
0.004750 0.069350 0.069510
-0.014250 0.069978 0.076948
-0.012750 0.069978 0.076948
0.005000 0.088528 0.079822
-0.009250 0.038146 0.074592
-0.005750 0.066892 0.072748
-0.013250 0.066934 0.073228
-0.030500 0.073077 0.073230
-0.000250 0.127901 0.097008
-0.014750 0.071458 0.078387
-0.030750 0.075172 0.073830
0.039750 0.126888 0.021790
0.036000 0.127715 0.024202
0.020500 0.088676 0.061134
-0.029500 0.071692 0.072989
-0.019750 0.072826 0.078507
0.016750 0.089540 0.063770
0.012250 0.127233 0.029918
-0.005750 0.121121 0.096670
-0.021750 0.130600 0.094629
-0.020000 0.135397 0.094854
0.000500 0.112161 0.089765
0.036250 0.124371 0.030431
-0.023000 0.138112 0.091797
-0.021000 0.138126 0.093608
0.003000 0.073242 0.075268
0.033500 0.125125 0.031192
0.020500 0.125276 0.034621
0.018250 0.125962 0.033858
0.030250 0.123201 0.036403
-0.031500 0.080276 0.078266
0.026500 0.123913 0.036275
-0.029500 0.080356 0.079344
0.019750 0.123259 0.037673
0.016250 0.124597 0.035512
0.013750 0.124614 0.035893
0.028500 0.123908 0.036148
0.010250 0.124648 0.036655
-0.036250 0.079184 0.072751
-0.009500 0.120525 0.099727
0.046250 0.119825 0.025477
-0.018000 0.160034 0.048743
-0.036250 0.089088 0.078025
0.040750 0.121523 0.031068
0.014750 0.085662 0.067601
0.002500 0.129857 0.090892
-0.041250 0.101067 0.071794
-0.021750 0.112913 0.092028
-0.020500 0.112250 0.092368
0.060250 0.090395 0.035218
0.054500 0.083550 0.047044
0.028250 0.121868 0.038436
-0.040750 0.106464 0.069519
0.067250 0.075186 0.021992
0.058000 0.074692 0.041564
-0.037000 0.102053 0.077422
0.053750 0.043100 0.028374
0.044500 0.102692 0.038287
0.018250 0.121969 0.040595
0.047500 0.044848 0.038641
0.047750 0.045736 0.040414
0.063500 0.060491 0.024044
0.037500 0.107287 0.043886
-0.029500 0.045756 0.018864
0.026750 0.120552 0.040594
0.042000 0.109828 0.038930
0.039750 0.112007 0.039822
0.050250 0.114033 0.024576
-0.024250 0.054784 0.046357
0.040500 0.119490 0.033352
0.041250 0.122801 0.027639
0.008750 0.125868 0.031699
0.041000 0.124873 0.025476
0.038000 0.127614 0.021789
0.040500 0.114011 0.037537
0.033000 0.127827 0.026869
0.055500 0.106106 0.024179
0.042250 0.113259 0.036774
-0.051750 0.159279 0.046368
-0.057750 0.173647 0.032882
-0.014250 0.175083 0.027804
0.017000 0.118712 0.046309
0.059000 0.101922 0.026205
-0.037250 0.112282 0.076462
0.029250 0.112388 0.046686
-0.041250 0.127452 0.077893
-0.003500 0.168242 0.003290
-0.040000 0.160044 0.052220
0.066000 0.092841 0.019573
0.031000 0.110289 0.046939
0.043250 0.100637 0.039429
0.060250 0.094316 0.030262
0.041750 0.100754 0.041209
0.062750 0.091419 0.029748
0.051500 0.041287 0.031673
0.061250 0.091577 0.031912
0.048500 0.036086 0.036503
0.055500 0.095583 0.038151
0.012000 0.121592 0.047581
0.050000 0.040095 0.033958
0.061500 0.090957 0.033183
-0.032500 0.118864 0.087591
0.048500 0.040319 0.036114
0.056000 0.045578 0.031667
-0.034500 0.121560 0.087111
0.051500 0.094706 0.045784
0.045000 0.035326 0.042597
0.048750 0.043894 0.036234
0.068500 0.089382 0.011804
-0.034500 0.110232 0.076582
0.060000 0.049059 0.023171
0.061000 0.085646 0.038013
0.059000 0.039931 0.018485
-0.039750 0.116511 0.079453
0.054500 0.052122 0.040399
0.055500 0.082069 0.046024
-0.027500 0.048237 0.044211
0.057500 0.040505 0.024065
0.060750 0.070902 0.038258
0.056250 0.038478 0.025335
0.062250 0.103281 0.013367
0.060750 0.066551 0.036732
0.061000 0.059545 0.029246
0.062500 0.057833 0.025950
0.061250 0.057265 0.027472
0.062750 0.099453 0.021368
0.059250 0.047694 0.016456
0.055750 0.035656 0.025845
0.067000 0.090974 0.013717
-0.036000 0.158615 0.054381
0.060250 0.062409 0.037618
0.060000 0.107043 0.015665
0.057750 0.064186 0.041806
0.058750 0.045095 0.019498
0.056000 0.062273 0.043960
-0.025750 0.152513 0.083992
0.047750 0.035470 0.037393
0.062500 0.078273 0.033813
0.055500 0.090312 0.043617
-0.027250 0.149775 0.086389
-0.014750 0.151154 0.086269
0.056500 0.077803 0.045254
-0.027000 0.052242 0.041666
0.054250 0.119177 0.012011
-0.026500 0.051041 0.043950
0.054000 0.059572 0.045098
0.050750 0.119543 0.019633
0.063250 0.071879 0.033177
-0.044000 0.125102 0.069277
0.049500 0.113465 0.027371
0.045750 0.106134 0.036511
0.056750 0.072908 0.045373
0.031500 0.107539 0.048081
0.063500 0.083498 0.028596
0.043000 0.105625 0.039816
0.033500 0.034498 0.060553
-0.007750 0.040968 0.075065
0.010500 0.041479 0.073382
0.007500 0.043174 0.076260
0.005500 0.047939 0.068802
-0.029000 0.046460 0.054513
-0.002500 0.047901 0.068441
-0.024500 0.048694 0.048861
-0.014500 0.057993 0.058100
-0.018000 0.059760 0.062183
-0.024250 0.063610 0.066627
0.016750 0.063167 0.061707
0.050750 0.063390 0.048628
-0.034250 0.068823 0.063272
0.038250 0.034542 0.054669
-0.032500 0.074356 0.072151
0.025250 0.111112 0.049288
0.008000 0.075722 0.072151
0.010500 0.077024 0.071312
0.054750 0.075953 0.048293
0.040250 0.038466 0.052015
0.014500 0.080673 0.065081
0.039750 0.042786 0.052963
0.038500 0.042364 0.055606
-0.025250 0.082642 0.082820
-0.035000 0.082872 0.076587
-0.031250 0.045671 0.053674
0.038250 0.045609 0.053074
0.036250 0.047150 0.054391
0.020750 0.083881 0.061728
-0.035750 0.084871 0.075988
0.009250 0.084813 0.075149
-0.006250 0.048848 0.057268
0.048000 0.084004 0.053461
-0.034000 0.128407 0.086989
0.027750 0.108338 0.050124
0.050500 0.089392 0.050474
0.044000 0.091086 0.055146
0.048500 0.090863 0.051552
-0.036000 0.125615 0.085913
0.004750 0.098576 0.076465
0.011750 0.098247 0.070597
-0.036000 0.103453 0.078021
-0.028500 0.155913 0.075002
-0.049000 0.157170 0.048629
0.012250 0.107613 0.064610
-0.031500 0.154538 0.077400
0.001750 0.108064 0.074188
-0.037000 0.154403 0.059062
0.006000 0.111183 0.067005
0.009500 0.111047 0.063892
0.003750 0.111932 0.068321
-0.033500 0.137973 0.082798
0.013250 0.116868 0.052762
-0.036250 0.119446 0.084958
-0.034500 0.127031 0.087109
0.050000 0.109237 0.028634
-0.042000 0.141742 0.060877
-0.039500 0.147440 0.065902
-0.004250 0.152445 0.076442
-0.046000 0.086033 0.062928
-0.067250 0.157330 0.019716
-0.023500 0.153198 0.083273
-0.007500 0.151798 0.081476
-0.043250 0.088572 0.070118
-0.045750 0.089548 0.063890
0.039250 0.095823 0.052393
-0.046750 0.090830 0.062213
0.021500 0.099685 0.058981
-0.011250 0.151144 0.085311
-0.062500 0.153875 0.027845
-0.009500 0.154534 0.076801
-0.032000 0.154529 0.076201
-0.036500 0.108750 0.074188
0.016250 0.099192 0.062693
-0.002500 0.147652 0.082196
-0.061750 0.157482 0.027586
-0.062500 0.158183 0.026442
-0.001500 0.143576 0.086989
-0.021250 0.035384 0.062231
-0.022000 0.034592 0.061393
-0.042250 0.117742 0.075862
-0.009000 0.165660 0.036834
-0.042250 0.120510 0.076579
-0.010000 0.149101 0.087707
-0.041750 0.123290 0.077775
0.037000 0.039909 0.058856
-0.059250 0.156109 0.031142
-0.039750 0.138457 0.072498
-0.060000 0.156807 0.029999
0.037250 0.043269 0.057525
-0.068250 0.178016 0.027163
-0.030500 0.106290 0.080055
0.014250 0.037496 0.068710
-0.040500 0.136393 0.073817
-0.001750 0.105542 0.078738
-0.013000 0.112381 0.096216
0.018000 0.050780 0.055581
-0.007750 0.107043 0.081492
0.004000 0.102009 0.076584
0.002000 0.102091 0.078141
0.050500 0.086614 0.050830
-0.004000 0.035102 0.078322
-0.012500 0.113771 0.097687
0.000000 0.135376 0.092816
-0.015750 0.173624 0.029203
0.064250 0.047503 0.000121
0.000000 0.138099 0.090325
0.000000 0.139465 0.088966
0.050250 0.081805 0.051900
-0.067000 0.169984 0.031875
-0.015250 0.172183 0.032505
0.003500 0.120374 0.093612
-0.057250 0.172202 0.035170
-0.022500 0.120469 0.097462
-0.004750 0.147024 0.086988
-0.065500 0.168540 0.033655
-0.032750 0.096165 0.082095
-0.041500 0.129499 0.076575
-0.008000 0.162580 0.025799
-0.036250 0.131758 0.083278
0.064000 0.045228 -0.000557
-0.059000 0.170038 0.037713
0.069000 0.052150 -0.003673
-0.050500 0.170053 0.039362
-0.056750 0.167882 0.040256
0.068000 0.068546 -0.014503
-0.003000 0.058231 0.060621
0.048750 0.067698 0.049956
-0.014750 0.166436 0.040766
0.046750 0.067789 0.051035
-0.055250 0.160576 0.037607
-0.057500 0.164266 0.041279
-0.014750 0.165005 0.042293
0.018500 0.074840 0.060879
-0.048750 0.166478 0.044193
-0.021500 0.047630 0.052227
-0.067500 0.168391 0.019188
-0.019000 0.047642 0.052347
-0.006750 0.183920 0.013450
0.026500 0.049414 0.055945
0.003750 0.083705 0.078744
-0.050250 0.163614 0.046358
-0.055500 0.161386 0.042682
0.012000 0.113585 0.058147
0.015750 0.050456 0.059306
0.016000 0.065323 0.062669
-0.013500 0.045094 0.054877
-0.012000 0.045094 0.054877
-0.026250 0.045933 0.056196
0.000750 0.063426 0.064587
0.025250 0.044984 0.060522
0.013250 0.046657 0.063160
0.011500 0.047479 0.064359
0.072750 0.063372 -0.015170
0.050500 0.078310 0.051774
-0.072500 0.181690 0.019924
-0.011250 0.180952 0.017642
-0.032000 0.068256 0.064711
-0.049250 0.147720 0.040678
0.050250 0.080419 0.052017
0.071500 0.058882 -0.008685
-0.032000 0.035856 0.060189
-0.004000 0.053954 0.059295
-0.006000 0.156896 0.034441
-0.061250 0.151762 0.030134
-0.043500 0.106823 0.062575
0.051500 0.087925 0.049515
-0.055000 0.158378 0.036850
0.016750 0.104556 0.058862
0.015500 0.073782 0.064955
-0.000750 0.045249 0.076255
-0.048000 0.150017 0.046640
0.066750 0.047295 -0.001771
-0.041000 0.108451 0.067723
0.002750 0.109344 0.072152
-0.010250 0.068484 0.075388
0.009750 0.038331 0.076273
-0.009750 0.036787 0.074836
-0.011500 0.069237 0.076228
-0.004750 0.169000 0.005449
-0.021500 0.121831 0.098368
-0.021750 0.126532 0.096896
-0.065500 0.177284 0.027799
-0.021750 0.129243 0.095422
-0.023500 0.131259 0.092817
-0.020750 0.115762 0.097009
-0.000500 0.132674 0.096101
-0.008750 0.114420 0.097008
-0.022000 0.139490 0.092476
-0.006000 0.146349 0.088853
-0.029000 0.074566 0.074789
-0.013500 0.036748 0.068232
-0.009500 0.174355 0.028820
-0.065000 0.175824 0.029579
-0.002000 0.073436 0.077667
0.045250 0.123986 0.021794
-0.062250 0.175096 0.030468
-0.007000 0.165420 0.017924
-0.012750 0.173634 0.030725
0.014500 0.082290 0.068438
0.004500 0.076032 0.076108
-0.010500 0.036014 0.074117
0.070500 0.061734 -0.009230
0.072750 0.060715 -0.012332
-0.018250 0.074309 0.080066
0.073250 0.059141 -0.013544
0.001250 0.076871 0.078146
-0.010000 0.172904 0.031107
-0.061500 0.172922 0.033772
-0.010500 0.171457 0.033141
-0.011750 0.172185 0.032759
-0.002500 0.077716 0.080304
0.041000 0.122155 0.029291
-0.058500 0.171483 0.036440
-0.060500 0.171479 0.035933
0.009500 0.092185 0.072873
-0.044750 0.097964 0.065567
-0.009250 0.169279 0.034542
-0.008000 0.168540 0.033655
-0.015000 0.170023 0.036063
-0.006250 0.161828 0.024658
0.033250 0.123138 0.035006
0.023250 0.124592 0.035384
-0.014500 0.168586 0.038096
-0.042000 0.098956 0.070956
-0.017250 0.167860 0.038225
-0.009500 0.167114 0.036577
-0.015750 0.167867 0.038860
-0.048750 0.167904 0.042286
0.058250 0.110600 0.014530
-0.015500 0.110873 0.091576
0.006500 0.105851 0.071075
0.062250 0.106115 0.012230
-0.034250 0.096074 0.080538
-0.039250 0.106568 0.071674
-0.041750 0.162198 0.049697
-0.017250 0.163581 0.044073
-0.043750 0.165056 0.046100
-0.037500 0.107348 0.073589
-0.044000 0.161479 0.050298
-0.038250 0.109333 0.071913
-0.013000 0.161426 0.045094
-0.013500 0.160015 0.047128
-0.017000 0.161455 0.046871
0.018750 0.120644 0.042499
0.023500 0.121260 0.040594
0.051750 0.069005 0.048879
0.044500 0.112478 0.035502
0.024750 0.117898 0.044148
-0.040500 0.143176 0.062432
0.036250 0.114877 0.040461
0.020000 0.050635 0.054140
-0.015000 0.061471 0.065785
0.056250 0.074395 0.046392
0.059000 0.073224 0.040800
-0.026250 0.112576 0.083285
0.056000 0.102125 0.029385
-0.024500 0.047667 0.052587
-0.007500 0.158345 0.035074
0.052500 0.066757 0.047140
0.054500 0.066624 0.045616
0.039500 0.107188 0.042233
-0.020000 0.046435 0.054273
0.054000 0.061008 0.045480
0.044250 0.049203 0.046871
0.049750 0.048821 0.042942
-0.022000 0.046485 0.054753
0.046500 0.049823 0.045982
-0.030500 0.113237 0.082806
0.059500 0.054391 0.034572
0.051750 0.120701 0.013539
0.042500 0.123438 0.025733
0.035000 0.123741 0.032464
0.039250 0.128246 0.019502
0.052500 0.098149 0.034084
-0.007500 0.156958 0.037615
-0.006250 0.159033 0.032787
-0.006500 0.159743 0.031643
-0.012500 0.162845 0.043313
-0.041000 0.164333 0.046102
-0.066750 0.178016 0.027163
-0.014250 0.176539 0.024629
-0.008500 0.184667 0.012053
-0.028250 0.115430 0.086516
0.040500 0.104334 0.041849
-0.014250 0.065388 0.071188
-0.043500 0.155776 0.053067
-0.040750 0.072554 0.058239
-0.007000 0.147726 0.087947
-0.043250 0.146517 0.049489
-0.004000 0.066072 0.071188
-0.027500 0.068665 0.069510
-0.001250 0.066724 0.070829
-0.050250 0.153517 0.043968
0.016000 0.041772 0.063174
0.009000 0.045448 0.071570
-0.029500 0.144961 0.087348
0.062250 0.086121 0.035086
-0.000250 0.046507 0.075051
-0.009500 0.067720 0.074428
-0.011500 0.042351 0.068576
-0.022000 0.068981 0.073229
-0.034250 0.072022 0.068672
0.064000 0.078138 0.032160
0.043500 0.039883 0.045503
-0.018500 0.069155 0.075268
0.060750 0.069452 0.037749
0.062500 0.066902 0.032670
0.009750 0.073499 0.069992
0.049000 0.106494 0.030663
0.055000 0.047480 0.036480
0.051250 0.106960 0.026469
-0.023000 0.051464 0.048372
0.050000 0.056850 0.045981
0.041000 0.126163 0.021791
0.060250 0.041897 0.016456
0.044500 0.043722 0.041560
0.042000 0.127455 0.017979
0.063500 0.102262 0.008660
0.065250 0.069821 0.025557
0.029250 0.127244 0.030173
0.045000 0.046747 0.043455
0.044000 0.123374 0.024335
-0.007250 0.163277 0.023132
-0.007000 0.163983 0.020973
-0.004500 0.165344 0.011960
-0.069750 0.167591 0.013606
-0.071000 0.171277 0.010427
0.032000 0.125159 0.031954
0.027500 0.126588 0.031698
-0.029750 0.076694 0.075868
0.064750 0.093733 0.021992
0.066000 0.059277 0.010471
0.022500 0.125276 0.034621
0.023750 0.125951 0.033604
0.022500 0.126626 0.032587
0.042000 0.097707 0.048442
-0.005500 0.151781 0.079678
-0.026750 0.076880 0.078266
0.056750 0.116046 0.007556
-0.034750 0.079336 0.074789
0.019000 0.125282 0.034748
0.055000 0.037946 0.027111
0.034500 0.122425 0.035134
0.059250 0.069637 0.039908
0.018000 0.123925 0.036529
-0.020750 0.152521 0.084831
0.011500 0.082512 0.071554
0.023750 0.123254 0.037546
-0.019250 0.151155 0.086389
-0.023000 0.151835 0.085311
-0.012750 0.151148 0.085670
-0.043750 0.087091 0.068440
0.055250 0.071680 0.047403
0.058000 0.107193 0.018207
-0.008250 0.149766 0.085551
-0.022250 0.151155 0.086389
-0.016250 0.151155 0.086389
-0.020750 0.151155 0.086389
-0.024500 0.050006 0.047882
0.060250 0.056434 0.033812
-0.014750 0.149792 0.087827
-0.011250 0.149784 0.087108
0.057500 0.056009 0.036854
0.057500 0.062137 0.042438
0.058500 0.088627 0.040052
0.056250 0.108063 0.020751
0.049250 0.035195 0.034855
0.049500 0.118933 0.021918
0.052500 0.083674 0.048668
0.066000 0.081823 0.025290
0.064500 0.083338 0.026560
0.055500 0.088938 0.044125
0.046500 0.034994 0.039551
0.052500 0.117321 0.018485
0.046250 0.117145 0.029283
0.057250 0.075711 0.045377
0.047250 0.115688 0.028772
0.056750 0.085431 0.044248
0.054000 0.082191 0.047550
-0.025250 0.115591 0.091348
0.055500 0.087554 0.044506
0.054250 0.086992 0.046287
0.044750 0.115892 0.032711
0.035250 0.119022 0.038305
0.045500 0.108230 0.035878
-0.050000 0.158588 0.048020
0.045250 0.118558 0.028904
0.060750 0.102367 0.021883
0.059750 0.103784 0.021505
0.007500 0.034967 0.077122
-0.008500 0.036202 0.075798
0.006500 0.046861 0.071807
-0.022500 0.050152 0.049337
0.044250 0.052181 0.048489
0.019750 0.053833 0.051010
0.040500 0.054554 0.051252
0.037500 0.104485 0.044265
-0.001750 0.056216 0.061219
0.014250 0.119448 0.046945
-0.004250 0.058855 0.059902
0.050500 0.059881 0.048501
-0.010750 0.062225 0.066506
0.067500 0.092216 0.010794
0.068000 0.090789 0.011172
0.049750 0.064841 0.049231
-0.025000 0.067336 0.069989
0.049750 0.066229 0.049113
-0.026750 0.069542 0.071789
0.001750 0.069583 0.072269
-0.023250 0.072688 0.076828
-0.027000 0.074642 0.075748
-0.036500 0.076923 0.069993
0.048500 0.077024 0.053210
-0.033250 0.079480 0.076707
-0.009250 0.183922 0.012942
0.007750 0.080779 0.075868
0.011500 0.081110 0.071074
0.009250 0.082079 0.075029
-0.030500 0.083103 0.079823
0.063250 0.098046 0.021874
0.019250 0.085336 0.062808
0.001750 0.088009 0.082218
-0.033250 0.087898 0.080541
0.046750 0.086156 0.054423
0.021500 0.087192 0.059575
-0.038000 0.088306 0.076467
-0.034250 0.090643 0.081019
0.028250 0.093220 0.055746
0.026250 0.093306 0.057183
0.049750 0.094181 0.048320
0.010750 0.096937 0.071795
0.022000 0.103739 0.056468
0.035000 0.097740 0.049041
0.018750 0.101812 0.059700
0.015500 0.103949 0.060658
0.019750 0.104473 0.057186
-0.025750 0.156602 0.073683
-0.045750 0.159321 0.050903
-0.048000 0.158595 0.049466
0.008250 0.105091 0.069639
-0.034500 0.106173 0.077660
-0.023250 0.156613 0.075601
0.017750 0.105886 0.057546
-0.002750 0.109579 0.077300
-0.008500 0.149093 0.086988
-0.032750 0.151119 0.082794
-0.006500 0.149076 0.085551
-0.034500 0.113161 0.081010
0.006250 0.113143 0.064251
-0.034250 0.142826 0.083395
0.012750 0.115504 0.053719
-0.032500 0.133877 0.085074
0.009250 0.121077 0.052883
0.007750 0.123794 0.049891
0.007500 0.123129 0.051328
0.061250 0.095464 0.026193
0.037750 0.095829 0.052513
0.002500 0.127149 0.093158
-0.040750 0.113413 0.070716
0.032000 0.095142 0.052752
0.066750 0.087856 0.020453
0.059250 0.095711 0.029756
0.059750 0.044571 0.014174
0.030500 0.093826 0.054189
0.017750 0.100497 0.061137
-0.001250 0.112920 0.092255
0.002000 0.132600 0.090438
-0.018000 0.112334 0.094858
-0.038500 0.112937 0.075743
-0.038750 0.120721 0.082563
-0.002000 0.125872 0.098142
0.001000 0.136714 0.089192
-0.006250 0.114330 0.094179
0.045750 0.088965 0.054786
0.024500 0.094104 0.058860
0.027750 0.035464 0.062951
-0.023750 0.136041 0.090778
0.051250 0.097930 0.041334
-0.062500 0.155309 0.027335
-0.008000 0.177273 0.024247
-0.031750 0.111045 0.079455
-0.010750 0.159247 0.044591
-0.043250 0.130021 0.070111
-0.044000 0.119649 0.071673
-0.019500 0.160033 0.048383
0.046750 0.098198 0.045277
-0.043000 0.129420 0.073702
-0.038500 0.115876 0.080650
-0.018750 0.149793 0.088060
-0.020250 0.118495 0.098821
-0.010000 0.186177 0.006215
-0.005000 0.162500 0.020468
-0.037250 0.160760 0.051139
-0.051000 0.149882 0.041308
-0.046500 0.147109 0.044488
-0.007250 0.105673 0.081373
0.004750 0.099953 0.076584
-0.065500 0.174370 0.031485
-0.024000 0.123109 0.095537
-0.007750 0.038318 0.076152
-0.033250 0.124998 0.088400
-0.041000 0.094950 0.073112
-0.060000 0.172921 0.033645
0.043250 0.086340 0.057178
0.060000 0.050679 0.025070
-0.008500 0.144978 0.091456
0.043000 0.084325 0.058134
-0.035250 0.098778 0.080058
-0.066250 0.170730 0.033523
-0.042750 0.153656 0.053790
-0.012500 0.143610 0.093154
-0.012000 0.170019 0.035682
-0.009000 0.142240 0.093720
-0.032500 0.127066 0.088513
0.067000 0.064821 0.008676
0.065000 0.043442 -0.003396
-0.006000 0.139508 0.095080
-0.002250 0.093483 0.082815
0.033750 0.101231 0.048564
-0.013750 0.157885 0.049587
0.051750 0.047005 0.038890
-0.020750 0.050916 0.049935
-0.058250 0.160496 0.032911
-0.032250 0.129125 0.088060
0.049000 0.046445 0.040413
-0.020500 0.158595 0.049466
-0.027500 0.129854 0.090665
-0.053750 0.167898 0.041652
0.023000 0.067183 0.052114
0.042250 0.066671 0.054272
0.011250 0.087410 0.073233
0.047250 0.069224 0.051518
0.013500 0.058448 0.062902
-0.018250 0.164993 0.041404
0.021750 0.066548 0.052833
0.050000 0.061356 0.049344
0.020000 0.073352 0.059559
0.047750 0.047355 0.042439
-0.018250 0.047014 0.053070
-0.010000 0.047630 0.052227
0.046500 0.046671 0.042694
0.029750 0.048762 0.056428
0.024000 0.113142 0.047576
-0.054750 0.162127 0.043696
-0.014750 0.163577 0.043819
0.059250 0.043637 0.019372
0.024000 0.049426 0.056065
-0.003250 0.051951 0.060262
-0.003250 0.053338 0.060138
0.020000 0.048147 0.057270
0.025000 0.071453 0.053201
0.014500 0.051288 0.060624
0.022500 0.048184 0.057631
-0.037250 0.157911 0.055221
0.005000 0.087139 0.079343
-0.036000 0.069301 0.060753
0.018250 0.067217 0.060631
0.042750 0.070914 0.055119
-0.019500 0.128592 0.097461
0.022000 0.046907 0.058835
-0.015500 0.043881 0.056682
-0.000500 0.051494 0.062666
0.025250 0.046220 0.058958
-0.053750 0.160694 0.044588
0.019250 0.044921 0.059922
-0.023250 0.043395 0.058726
0.003000 0.064158 0.065067
0.017000 0.045570 0.059440
-0.019000 0.042696 0.058728
0.049000 0.049688 0.044588
-0.017000 0.042657 0.058367
-0.026750 0.064814 0.064708
-0.012250 0.041983 0.058610
0.049000 0.079800 0.053095
-0.005000 0.156787 0.028983
0.045000 0.078568 0.055250
0.006750 0.066295 0.065909
0.034000 0.038810 0.061621
-0.020000 0.064554 0.069508
-0.032500 0.069633 0.064712
0.003000 0.065734 0.067348
-0.002500 0.046974 0.072887
-0.002500 0.054096 0.060736
0.055000 0.056406 0.041164
0.012500 0.039700 0.069784
-0.016250 0.066860 0.072388
0.015750 0.075847 0.064957
0.008250 0.072061 0.069152
-0.019750 0.126559 0.098368
-0.002250 0.127930 0.098708
0.002500 0.119039 0.094065
0.005000 0.120326 0.091687
-0.019750 0.130625 0.096328
-0.005500 0.110865 0.091350
-0.003750 0.137457 0.095420
-0.057750 0.150430 0.034579
0.031000 0.097959 0.052993
0.044000 0.042526 0.043720
