0.058250 0.086665 0.042086
-0.024250 0.092271 0.085211
-0.040250 0.139818 0.070701
-0.000250 0.043968 0.077219
-0.023750 0.043408 0.058846
-0.042750 0.153656 0.053790
0.055750 0.100103 0.031289
0.013000 0.110843 0.059223
-0.018000 0.079298 0.083301
-0.017750 0.068402 0.074428
0.002000 0.067336 0.069989
0.040750 0.063847 0.053788
-0.000500 0.134030 0.095081
-0.020000 0.138132 0.094287
-0.007250 0.173619 0.028314
-0.014750 0.170742 0.034919
-0.021250 0.038151 0.061983
-0.036750 0.079148 0.072272
0.046250 0.072121 0.052842
0.054500 0.069492 0.046383
0.057000 0.075032 0.045630
-0.002750 0.133375 0.097460
0.041250 0.042430 0.049601
-0.018000 0.083489 0.085217
-0.009750 0.089612 0.086051
0.018750 0.054115 0.053893
-0.039500 0.082504 0.071434
-0.060500 0.158233 0.029108
0.050000 0.090789 0.050355
-0.018500 0.051668 0.050413
0.058500 0.105801 0.019094
-0.012000 0.077892 0.082582
0.025750 0.075074 0.055005
-0.018000 0.119194 0.099953
0.000000 0.107479 0.076343
0.037000 0.096476 0.051555
-0.025500 0.037426 0.061745
-0.013750 0.155236 0.077759
-0.021000 0.154564 0.080876
-0.020000 0.146351 0.090550
0.005000 0.099255 0.076345
0.037000 0.126326 0.025601
0.036000 0.107363 0.045157
0.043750 0.118671 0.031191
0.027750 0.128586 0.027757
0.000000 0.136736 0.091570
-0.020000 0.040129 0.060897
-0.022750 0.036794 0.062347
-0.044000 0.123738 0.070356
-0.007250 0.090935 0.085571
-0.041250 0.111772 0.064610
-0.008000 0.080667 0.083540
0.059000 0.054438 0.035079
0.040000 0.084399 0.059213
-0.014000 0.095683 0.085449
0.035750 0.091873 0.056583
-0.004750 0.127946 0.099614
-0.010500 0.129993 0.099726
0.016750 0.105921 0.058264
0.001250 0.094723 0.080778
-0.010250 0.093667 0.085809
0.059000 0.081732 0.041826
0.018000 0.091569 0.062932
-0.010250 0.169289 0.035557
-0.014750 0.068464 0.075148
-0.025250 0.145661 0.088966
-0.037750 0.113758 0.078975
-0.006000 0.150424 0.082555
-0.001000 0.110162 0.075026
0.049000 0.113526 0.028514
-0.060250 0.172202 0.035170
-0.015500 0.054472 0.050411
-0.013750 0.103082 0.084008
-0.019500 0.164271 0.041660
-0.007250 0.133389 0.098592
0.051500 0.037010 0.031807
0.005250 0.069299 0.068910
0.040750 0.059604 0.053061
0.046750 0.079192 0.054292
0.030500 0.058785 0.051740
-0.037250 0.087634 0.076587
-0.042000 0.139072 0.068306
-0.017250 0.055159 0.050292
0.039750 0.035734 0.052744
0.017750 0.090882 0.063051
0.049500 0.038721 0.034468
0.007750 0.094442 0.076107
-0.040500 0.144601 0.063629
-0.016500 0.162872 0.045090
-0.012500 0.150468 0.086629
-0.009500 0.184669 0.011292
-0.033500 0.103552 0.079936
0.060250 0.062409 0.037618
0.040500 0.050152 0.049337
0.031250 0.060899 0.051983
-0.040500 0.088077 0.072993
0.031000 0.097959 0.052993
-0.023250 0.084095 0.084257
-0.037500 0.155804 0.057502
-0.006000 0.174229 0.000443
0.003000 0.125779 0.093271
-0.016000 0.051692 0.050653
0.036750 0.097097 0.050118
-0.023750 0.048186 0.050784
0.063250 0.074761 0.033940
0.020250 0.072631 0.059198
-0.014750 0.134740 0.097346
-0.017000 0.139509 0.095193
0.014500 0.120103 0.045929
-0.010000 0.054531 0.051012
0.047750 0.070649 0.051880
0.002000 0.099388 0.078740
-0.021000 0.160011 0.046874
-0.000250 0.047655 0.072766
0.045250 0.070718 0.052720
0.052500 0.110369 0.023298
0.015000 0.041939 0.064735
0.012000 0.118962 0.052523
-0.000750 0.076946 0.079105
-0.008250 0.038252 0.075552
-0.017500 0.077873 0.082343
0.056750 0.051197 0.038120
-0.030250 0.042072 0.059450
-0.018250 0.044569 0.056560
0.026000 0.089778 0.056583
-0.025250 0.136023 0.088966
0.042250 0.083665 0.058612
-0.041500 0.105734 0.068681
0.057000 0.059284 0.041927
-0.012750 0.142926 0.093720
-0.024750 0.114038 0.085679
-0.023000 0.077753 0.080784
0.038250 0.125636 0.026364
0.024750 0.079307 0.055850
0.061750 0.079039 0.034576
-0.042250 0.094061 0.069759
-0.010000 0.061361 0.064585
0.057500 0.112700 0.013137
0.051500 0.090707 0.049037
-0.038000 0.095171 0.076825
0.050250 0.081805 0.051900
0.049750 0.096769 0.045022
0.044250 0.115918 0.033219
0.030250 0.044934 0.060042
0.014750 0.114099 0.053598
0.009500 0.096290 0.072513
0.039500 0.109974 0.041473
-0.026500 0.080436 0.080423
-0.031750 0.118191 0.087711
0.034500 0.112883 0.042874
-0.047500 0.148549 0.044993
0.029500 0.053170 0.051369
-0.016750 0.104430 0.083768
0.071750 0.058104 -0.009223
-0.052250 0.150591 0.041053
0.039250 0.098354 0.047567
0.023250 0.036834 0.062707
0.057000 0.096584 0.032046
-0.009500 0.129995 0.099839
0.026000 0.055903 0.050774
-0.037750 0.130340 0.081962
0.012500 0.122672 0.040469
0.009500 0.084107 0.074790
0.005250 0.123677 0.090553
0.059000 0.095067 0.030772
-0.056750 0.154753 0.035079
0.022500 0.042989 0.061489
-0.002500 0.058266 0.060981
0.010500 0.097625 0.071795
0.033250 0.104033 0.048326
-0.011250 0.104424 0.083648
-0.043250 0.136923 0.066033
0.039750 0.118853 0.034875
-0.003000 0.144963 0.087468
0.004750 0.079498 0.076947
-0.018000 0.063042 0.067947
-0.021500 0.115053 0.095763
0.009750 0.125907 0.032588
-0.027500 0.155918 0.075841
0.032000 0.092514 0.055625
0.034500 0.123770 0.033099
-0.051250 0.149127 0.039786
0.014750 0.082992 0.068678
0.069250 0.085779 0.012176
0.030250 0.069444 0.054157
-0.036750 0.094594 0.078622
-0.018750 0.151156 0.086509
-0.014750 0.100400 0.084728
0.070000 0.061760 -0.008961
0.003750 0.127790 0.090552
0.015250 0.112728 0.054316
-0.027750 0.120982 0.090894
0.015250 0.082780 0.065682
0.011000 0.093503 0.071915
-0.020500 0.037466 0.062105
0.003250 0.105364 0.075146
-0.024250 0.053407 0.046608
0.029250 0.043650 0.061127
0.009500 0.094936 0.072873
-0.061500 0.159677 0.027836
0.060250 0.053580 0.033431
0.064250 0.068352 0.024923
0.037000 0.068889 0.055835
-0.015750 0.036781 0.062227
0.034750 0.085099 0.059333
0.017750 0.115363 0.050128
-0.013500 0.171463 0.033902
0.029250 0.073703 0.055243
-0.031500 0.153177 0.080756
0.056250 0.069986 0.043971
0.004500 0.104654 0.074667
-0.004750 0.043802 0.075658
-0.009250 0.136109 0.097572
0.044500 0.061628 0.052344
0.000750 0.086681 0.082578
-0.018000 0.129960 0.097574
-0.030250 0.144260 0.086629
0.013250 0.092608 0.068561
0.065750 0.077194 0.029236
-0.071250 0.176549 0.027420
0.019000 0.081896 0.062924
0.051250 0.084406 0.049149
-0.004250 0.090843 0.084133
0.000250 0.105483 0.077541
0.028750 0.053856 0.051251
0.019750 0.038204 0.062463
-0.000750 0.100176 0.080656
-0.003250 0.047493 0.071205
-0.021250 0.084138 0.084857
-0.040250 0.075866 0.065197
-0.006500 0.061250 0.063385
-0.014750 0.157888 0.050186
-0.006250 0.054339 0.056174
0.064750 0.053125 -0.001244
-0.019750 0.134716 0.095194
0.020750 0.128581 0.027630
0.050750 0.069065 0.049599
0.043000 0.104215 0.039941
0.022250 0.082136 0.056573
0.031500 0.107539 0.048081
0.054750 0.073173 0.048527
0.031750 0.062325 0.052346
0.035250 0.108077 0.045285
0.048750 0.090169 0.051672
-0.039250 0.128918 0.080645
0.039500 0.097720 0.048682
-0.041750 0.074016 0.059200
-0.008750 0.133392 0.098818
0.010000 0.121738 0.051687
-0.005750 0.088185 0.084854
-0.014500 0.048963 0.051502
0.017250 0.081249 0.063523
-0.012750 0.123881 0.100295
0.038750 0.099567 0.044642
-0.035750 0.091940 0.079940
-0.007500 0.125902 0.099728
0.019500 0.074764 0.059920
0.057750 0.085352 0.043230
0.030000 0.126555 0.030936
0.021250 0.075307 0.058002
-0.042000 0.154370 0.054628
-0.017500 0.087575 0.085813
0.030500 0.084341 0.058374
0.044750 0.066435 0.051513
-0.025000 0.098367 0.084848
0.033750 0.104027 0.048206
0.005500 0.068501 0.067590
-0.021500 0.099740 0.085087
0.049500 0.097414 0.044132
-0.044500 0.077332 0.057286
0.038250 0.099575 0.044769
0.067750 0.059880 -0.005852
0.018500 0.038889 0.062341
0.065750 0.071257 0.025809
-0.017000 0.050309 0.050898
-0.060250 0.157516 0.029363
-0.037750 0.086176 0.075149
-0.017750 0.042034 0.059090
0.008500 0.066983 0.065909
-0.024000 0.062749 0.064706
-0.014500 0.041360 0.059332
-0.001250 0.052119 0.061943
-0.002250 0.081246 0.082221
0.038000 0.093869 0.054907
-0.039500 0.090992 0.075748
0.058000 0.041893 0.023557
-0.042250 0.165049 0.045593
0.062500 0.101396 0.017939
-0.002750 0.079857 0.081742
-0.015500 0.070708 0.077548
0.016750 0.124603 0.035639
0.057250 0.102696 0.027097
0.031750 0.117756 0.041353
0.000500 0.142149 0.084234
0.056250 0.085471 0.044757
0.032250 0.080921 0.058969
-0.017250 0.140191 0.094853
0.003000 0.067284 0.069389
-0.001250 0.106858 0.077660
0.015750 0.071629 0.063874
-0.039500 0.158613 0.053781
-0.010750 0.043192 0.056805
-0.045000 0.122287 0.068202
-0.010500 0.084846 0.085335
-0.038750 0.160761 0.051499
-0.002500 0.168233 0.001399
0.063750 0.076107 0.033177
0.020500 0.060257 0.052582
-0.012250 0.082797 0.084977
0.008250 0.073586 0.071071
0.056000 0.079225 0.045510
-0.067250 0.175096 0.030468
0.039500 0.051656 0.050293
-0.043250 0.159325 0.052101
-0.010500 0.105093 0.083408
-0.009000 0.045006 0.067368
-0.007250 0.130675 0.099726
-0.001250 0.041294 0.078066
0.006750 0.042573 0.077102
0.068000 0.060539 -0.006529
-0.020000 0.109155 0.082928
-0.021500 0.046473 0.054633
-0.001250 0.127918 0.098028
-0.002250 0.140172 0.091796
0.029250 0.121856 0.038182
0.012000 0.090696 0.071077
0.019250 0.105840 0.056588
0.050500 0.089392 0.050474
0.045000 0.108275 0.036640
0.065750 0.061874 0.015667
0.017000 0.053764 0.057374
-0.010500 0.158528 0.044847
-0.013500 0.128622 0.099274
-0.011000 0.171459 0.033395
0.022500 0.064332 0.051389
-0.033000 0.113196 0.081848
-0.040000 0.081066 0.070474
-0.031750 0.043611 0.019118
0.012500 0.125276 0.034621
-0.010250 0.114442 0.097688
-0.015250 0.155241 0.078598
-0.014250 0.053774 0.050410
-0.029250 0.103001 0.082451
-0.002250 0.035887 0.079161
0.007500 0.116411 0.059105
0.047750 0.092946 0.051194
0.045000 0.048410 0.045986
-0.000750 0.096109 0.081137
0.062000 0.086835 0.035214
0.025750 0.072198 0.053801
-0.047750 0.156465 0.049590
0.030250 0.047533 0.058113
-0.010500 0.162809 0.040902
0.036750 0.071012 0.056318
-0.016250 0.140193 0.095079
0.067250 0.079538 0.023257
-0.043000 0.133565 0.072143
-0.040500 0.101813 0.072872
0.027500 0.078674 0.056688
-0.011000 0.075082 0.081265
0.068250 0.078689 0.012701
-0.017000 0.107810 0.083287
-0.009500 0.053135 0.051009
0.006750 0.125113 0.047070
-0.019500 0.116473 0.098367
-0.000250 0.109465 0.074786
-0.002500 0.132695 0.097686
0.041000 0.034658 0.049385
-0.023250 0.138796 0.091457
0.009750 0.053695 0.063741
-0.057750 0.157585 0.032917
0.027500 0.114455 0.045798
0.049250 0.057760 0.048257
-0.011500 0.059760 0.062183
0.008250 0.098368 0.072753
-0.043000 0.137635 0.066511
-0.005500 0.059547 0.059902
-0.048250 0.156462 0.049110
0.065250 0.061975 0.016809
-0.048750 0.163623 0.046992
-0.056500 0.149731 0.035342
0.033750 0.106719 0.046173
-0.022250 0.157882 0.048868
0.003500 0.047049 0.073608
-0.009250 0.123862 0.099388
-0.015250 0.103088 0.084128
-0.017500 0.055857 0.050294
-0.031000 0.043817 0.056082
0.023500 0.054460 0.050291
-0.016000 0.132693 0.097573
0.002000 0.092705 0.081258
-0.020250 0.036781 0.062227
0.000000 0.140818 0.086989
0.030750 0.060888 0.051863
0.026500 0.084242 0.056936
-0.007250 0.152475 0.079798
-0.065250 0.161788 0.022120
-0.009750 0.086893 0.085694
-0.021750 0.044644 0.057281
0.015000 0.044576 0.063286
-0.060000 0.172921 0.033645
-0.028500 0.143592 0.088060
0.043750 0.069444 0.054157
-0.001750 0.047580 0.072045
0.024000 0.037571 0.063066
0.044500 0.089703 0.055385
-0.004250 0.057414 0.059300
0.028250 0.095905 0.053830
-0.029750 0.135954 0.085313
0.057000 0.069077 0.041558
-0.014500 0.167152 0.039877
0.031500 0.070189 0.054758
-0.035500 0.157210 0.056421
0.039250 0.073836 0.056921
0.067750 0.082048 0.019182
-0.007250 0.042353 0.075061
0.056500 0.090207 0.042217
-0.027750 0.138730 0.086031
-0.022500 0.080658 0.083420
-0.031750 0.102938 0.081254
-0.030000 0.114683 0.084840
-0.018250 0.117165 0.099160
0.046250 0.037179 0.040054
-0.017500 0.158599 0.050305
0.005000 0.120326 0.091687
-0.010750 0.166412 0.038736
0.044500 0.105540 0.038417
0.052500 0.106220 0.026086
0.059500 0.101866 0.025315
-0.018750 0.149793 0.088060
0.018500 0.079093 0.062323
0.046750 0.066383 0.050913
0.004500 0.035156 0.078802
0.020250 0.124603 0.035639
0.021500 0.050659 0.054380
-0.035000 0.144888 0.082556
-0.008000 0.165452 0.020463
-0.008000 0.102344 0.082931
0.012750 0.045488 0.065325
0.067750 0.090165 0.012570
-0.047250 0.165056 0.046100
0.059500 0.055799 0.034572
-0.023250 0.103082 0.084008
-0.015000 0.087599 0.086172
0.003750 0.098623 0.077303
-0.003250 0.043866 0.076258
0.028500 0.064395 0.052109
-0.029500 0.128466 0.089872
-0.034750 0.105500 0.077900
-0.010500 0.168571 0.036574
-0.034000 0.106191 0.078020
0.049500 0.040161 0.034592
0.009750 0.115682 0.058267
0.058750 0.101278 0.027349
0.051250 0.076117 0.050451
0.008750 0.115705 0.058866
0.010750 0.062005 0.064106
-0.016250 0.160746 0.047634
-0.038750 0.126193 0.082202
0.060250 0.063793 0.037365
-0.065750 0.170733 0.033904
0.043000 0.042722 0.045622
-0.024000 0.120430 0.095877
-0.017250 0.065345 0.070708
-0.013250 0.134745 0.097799
0.054250 0.106825 0.024181
0.042250 0.120106 0.031320
0.043250 0.093119 0.054069
0.021500 0.109175 0.053117
-0.021750 0.149790 0.087707
-0.012000 0.047618 0.052107
0.026500 0.104948 0.052637
0.035000 0.092535 0.055985
0.049250 0.035195 0.034855
0.041750 0.122766 0.026877
0.051500 0.097291 0.042351
-0.001250 0.109519 0.075983
-0.036500 0.076923 0.069993
0.036000 0.119664 0.036909
-0.049250 0.166478 0.044193
-0.025500 0.151830 0.084831
-0.051750 0.167903 0.042159
-0.025500 0.073281 0.075748
0.044250 0.124048 0.023191
-0.006500 0.096993 0.084610
-0.025000 0.111901 0.083405
-0.015000 0.086252 0.086173
-0.065250 0.160311 0.021996
0.016250 0.057506 0.060260
-0.031750 0.043129 0.056204
-0.026000 0.146348 0.088400
0.047250 0.042560 0.037124
0.071500 0.055939 -0.009084
0.001500 0.116326 0.093386
-0.033000 0.094135 0.082335
0.001500 0.091371 0.081737
0.014750 0.078636 0.065439
-0.018000 0.123208 0.100068
-0.030250 0.134593 0.086151
-0.005000 0.037839 0.078075
0.009250 0.096978 0.072513
-0.069750 0.179481 0.025130
0.064750 0.068352 0.024923
0.014250 0.112798 0.055992
-0.026750 0.136002 0.087468
-0.032500 0.106238 0.078978
0.043750 0.125382 0.020522
0.017250 0.040893 0.061495
-0.004250 0.065303 0.070228
0.020000 0.125282 0.034748
0.048500 0.079835 0.053574
0.041250 0.116057 0.035888
-0.062750 0.151708 0.027849
-0.026250 0.038072 0.061263
-0.004250 0.138821 0.094740
-0.032750 0.125002 0.088627
0.001000 0.073329 0.076348
-0.021750 0.084129 0.084737
-0.043000 0.105569 0.065328
-0.033750 0.098832 0.081016
0.047750 0.052001 0.046609
0.015250 0.081301 0.064242
-0.011750 0.039150 0.071107
-0.036500 0.125600 0.085434
-0.010000 0.064607 0.070108
-0.013500 0.143610 0.093154
0.070500 0.068281 -0.017603
0.058250 0.098589 0.030015
0.024250 0.072169 0.053442
-0.005750 0.039807 0.077109
-0.059750 0.164966 0.039374
-0.037750 0.105352 0.074907
-0.032000 0.127070 0.088740
-0.051250 0.165039 0.044831
-0.020500 0.059692 0.061463
0.055500 0.104785 0.026084
0.005250 0.118267 0.090442
0.049750 0.111364 0.028256
-0.070250 0.178016 0.027037
0.002500 0.061272 0.063625
0.020500 0.050647 0.054260
0.035500 0.089847 0.057661
-0.002000 0.080534 0.081742
0.042500 0.107066 0.040199
0.031250 0.068042 0.054035
-0.002750 0.069786 0.074668
0.000750 0.097405 0.079938
-0.026250 0.129183 0.091685
0.059250 0.109129 0.014145
0.059500 0.104466 0.020871
-0.003750 0.094924 0.084131
-0.021500 0.061328 0.064225
-0.040250 0.135720 0.074895
-0.029500 0.066983 0.065909
0.013750 0.038913 0.068946
0.068250 0.066580 -0.011937
0.029500 0.087057 0.057539
-0.014250 0.075778 0.081504
-0.019250 0.069887 0.075868
0.042500 0.040110 0.047659
0.021250 0.108507 0.053835
0.050750 0.073362 0.050926
-0.029250 0.046430 0.018357
0.036000 0.060301 0.053062
0.041500 0.074501 0.056563
0.041250 0.035389 0.049623
-0.001250 0.117058 0.095424
-0.017750 0.084180 0.085456
-0.032000 0.104924 0.080056
0.041500 0.107112 0.040961
-0.010000 0.149101 0.087707
-0.037250 0.124888 0.084716
0.024500 0.121254 0.040467
-0.011000 0.098367 0.084848
-0.024000 0.091584 0.085091
-0.018750 0.077141 0.081624
0.015500 0.105288 0.059581
0.061750 0.072179 0.036734
0.042750 0.110480 0.037914
-0.002750 0.102913 0.080775
0.029500 0.074426 0.055603
0.063000 0.074078 0.034194
-0.020250 0.052288 0.049570
-0.042750 0.131490 0.072863
-0.009000 0.139512 0.095646
-0.001000 0.050146 0.063150
-0.011000 0.178741 0.022341
0.070500 0.053398 -0.005567
0.050500 0.046332 0.039272
0.010000 0.125287 0.034875
-0.014250 0.066913 0.072988
0.005750 0.051014 0.064829
0.021750 0.068012 0.053675
0.014500 0.049890 0.060629
-0.036000 0.081416 0.075269
-0.035500 0.108806 0.075385
-0.024500 0.046510 0.054993
-0.069250 0.178016 0.027163
-0.038250 0.145464 0.074649
0.006250 0.120936 0.088968
-0.037250 0.073239 0.066754
-0.058250 0.164985 0.040770
-0.009500 0.036122 0.075078
-0.037250 0.118023 0.083283
-0.009500 0.147726 0.089079
0.073000 0.064017 -0.016115
-0.063000 0.156732 0.026191
-0.026000 0.144972 0.088853
0.066000 0.059277 0.010471
-0.003500 0.121792 0.096670
-0.028500 0.123004 0.090666
0.016500 0.052435 0.058099
-0.021500 0.094339 0.085689
0.010000 0.117689 0.055994
0.014750 0.123277 0.038054
-0.016000 0.047642 0.052347
-0.007250 0.071418 0.077907
0.019250 0.112608 0.051443
-0.013500 0.146351 0.091003
0.060250 0.087772 0.038142
0.057750 0.101368 0.028748
0.011250 0.122308 0.047836
-0.032750 0.153852 0.078479
0.046500 0.088243 0.054426
-0.050500 0.165760 0.044702
0.026500 0.117191 0.044148
-0.045250 0.083956 0.062807
0.016250 0.058945 0.060862
-0.002750 0.161722 0.017931
-0.004250 0.115711 0.095311
0.010250 0.074906 0.070472
-0.026250 0.115474 0.087593
0.013500 0.113516 0.056471
-0.016500 0.047642 0.052347
-0.053000 0.170049 0.038982
-0.036750 0.105411 0.076104
-0.011250 0.166416 0.039117
0.020500 0.081801 0.061606
-0.012000 0.072206 0.079227
0.032500 0.073075 0.056081
0.040750 0.068144 0.055234
-0.034000 0.080142 0.076468
0.003250 0.069461 0.070830
-0.009000 0.059614 0.060623
0.016000 0.112028 0.054316
0.068750 0.048513 -0.003934
-0.037500 0.073964 0.067234
-0.013250 0.046989 0.052830
-0.037500 0.097972 0.077902
0.050750 0.120737 0.014301
0.024750 0.117898 0.044148
0.001750 0.038676 0.079394
-0.021250 0.049545 0.050299
-0.009750 0.148415 0.088400
-0.007500 0.146350 0.089758
0.018000 0.111972 0.052999
-0.030750 0.135935 0.084474
0.053750 0.092544 0.045146
-0.063500 0.156719 0.025556
-0.060750 0.170756 0.036569
-0.036000 0.129720 0.084595
0.051250 0.111166 0.024698
0.027000 0.074389 0.055124
-0.010000 0.094346 0.085809
0.031000 0.095156 0.052992
-0.019000 0.087559 0.085573
-0.014500 0.076483 0.081864
-0.010000 0.097028 0.085208
0.062000 0.078304 0.034194
-0.024250 0.071168 0.074909
-0.015000 0.123218 0.100521
-0.022000 0.117781 0.097235
0.019500 0.080455 0.062084
0.040750 0.103610 0.041594
-0.012500 0.061416 0.065185
-0.003000 0.044532 0.076017
-0.002000 0.119089 0.095990
0.040750 0.087766 0.057779
0.007750 0.062016 0.064226
-0.013750 0.077188 0.082223
0.031500 0.042874 0.060408
0.006500 0.089744 0.077665
-0.003000 0.142226 0.090664
-0.001000 0.153081 0.069491
-0.053750 0.150556 0.039657
-0.036500 0.139274 0.078606
0.037750 0.099618 0.045406
-0.035750 0.086257 0.076347
-0.016250 0.147038 0.090663
0.013750 0.099421 0.066884
0.064250 0.074497 0.030763
-0.056750 0.150468 0.036102
0.024000 0.105030 0.054313
0.004750 0.048572 0.068199
-0.063250 0.160365 0.025169
0.038750 0.103723 0.043374
-0.003750 0.145654 0.087588
-0.018000 0.102414 0.084248
0.036250 0.061008 0.053183
0.015750 0.085540 0.065803
-0.008250 0.164922 0.036074
-0.058250 0.150414 0.033944
0.015750 0.114060 0.052641
0.005250 0.072267 0.071670
0.012750 0.108918 0.062814
0.047500 0.051271 0.046358
-0.004750 0.144287 0.090211
-0.067750 0.169131 0.019314
0.027500 0.045633 0.060040
0.026750 0.121886 0.038817
0.062250 0.061493 0.027342
0.053000 0.085049 0.048311
-0.003000 0.083335 0.083059
-0.032750 0.072188 0.070711
-0.058000 0.156858 0.032537
0.022750 0.092123 0.060656
0.024250 0.093428 0.059219
-0.016750 0.035397 0.062351
-0.041000 0.090856 0.073592
-0.045500 0.086082 0.063647
0.036500 0.064574 0.054149
0.017000 0.063847 0.061587
-0.014500 0.140877 0.094966
-0.002000 0.103558 0.080056
-0.011500 0.135428 0.097798
0.002750 0.064952 0.066268
-0.008250 0.035510 0.075800
0.051250 0.091403 0.048918
-0.036000 0.149020 0.080878
0.027000 0.081476 0.057052
0.046000 0.062969 0.051747
0.051000 0.066856 0.048275
0.032500 0.057424 0.052097
-0.018750 0.090935 0.085571
-0.034250 0.086355 0.077785
0.029000 0.093826 0.054189
-0.026750 0.103051 0.083409
0.028500 0.098032 0.054310
0.004750 0.098576 0.076465
0.031750 0.105470 0.048925
0.009500 0.093561 0.072873
0.025250 0.107028 0.052159
0.036750 0.039222 0.058978
0.022500 0.041643 0.061973
-0.043750 0.084089 0.064724
0.041250 0.087750 0.057540
-0.045750 0.156475 0.051388
0.030250 0.065155 0.052830
0.040500 0.058874 0.052700
-0.012250 0.121211 0.100407
0.045750 0.052109 0.047749
0.039000 0.127577 0.020900
-0.016500 0.149103 0.088739
0.026500 0.092572 0.056584
-0.013750 0.043256 0.057405
0.014750 0.054811 0.060977
-0.007500 0.131354 0.099499
-0.029750 0.086649 0.082099
-0.024750 0.126471 0.093611
0.057250 0.068364 0.041430
0.000000 0.131304 0.095988
-0.032750 0.152488 0.081236
0.045750 0.080635 0.055013
-0.012000 0.165706 0.040387
0.003250 0.046495 0.074930
-0.019250 0.053703 0.049689
0.055250 0.042921 0.026599
0.000500 0.068910 0.072389
0.040500 0.092506 0.055506
-0.012750 0.096355 0.085329
-0.004250 0.119773 0.096443
0.009000 0.086857 0.075149
-0.046000 0.157182 0.051027
-0.055000 0.164291 0.043056
-0.028250 0.134627 0.087588
-0.006750 0.096327 0.084849
0.067250 0.075186 0.021992
-0.001500 0.104876 0.079098
0.069250 0.062498 -0.008827
0.038250 0.036158 0.056585
-0.015500 0.083506 0.085456
0.024250 0.050055 0.055343
0.001250 0.045288 0.076615
-0.021000 0.132652 0.094402
0.032750 0.036807 0.062467
-0.043250 0.076849 0.060042
-0.014000 0.128620 0.099160
-0.016250 0.096383 0.085808
0.046750 0.056429 0.048974
-0.006750 0.089573 0.085452
-0.006000 0.092950 0.085210
-0.066000 0.172914 0.032630
-0.053250 0.169332 0.039998
-0.008750 0.127954 0.100067
0.025250 0.100234 0.056227
0.057750 0.042626 0.023683
-0.023500 0.103750 0.083768
0.048500 0.099625 0.034849
0.051750 0.102921 0.030658
0.035250 0.076748 0.058724
-0.013500 0.102414 0.084248
0.054750 0.042972 0.027106
0.056000 0.076517 0.046649
0.033750 0.086452 0.058856
0.039250 0.126905 0.022171
0.063000 0.072637 0.033813
0.018250 0.074149 0.060879
0.055000 0.053515 0.040274
-0.013750 0.163572 0.043439
0.050000 0.054036 0.045849
0.051250 0.108343 0.025582
-0.019750 0.142922 0.092702
-0.016500 0.168581 0.037589
-0.021750 0.117107 0.097122
-0.056000 0.162836 0.042679
0.067500 0.050866 -0.002183
-0.044500 0.161478 0.050178
-0.012000 0.039739 0.070145
0.023250 0.076474 0.055127
0.028500 0.095198 0.053710
0.027750 0.086332 0.057058
-0.038750 0.098576 0.076465
-0.015500 0.157183 0.051147
0.023250 0.056555 0.050295
0.003000 0.065734 0.067348
0.006250 0.063405 0.064347
-0.000500 0.150324 0.073208
0.014000 0.083737 0.069517
0.019500 0.042963 0.061249
0.006500 0.123137 0.051568
0.015250 0.059024 0.061702
-0.033000 0.082984 0.078145
0.044000 0.108342 0.037785
0.022500 0.111835 0.049767
0.008500 0.057172 0.063981
-0.063500 0.162575 0.025418
-0.022750 0.044657 0.057401
-0.025000 0.138086 0.088740
-0.014500 0.142243 0.094173
-0.005250 0.090896 0.084972
0.056750 0.084059 0.044628
0.003000 0.040668 0.078668
-0.015000 0.063053 0.068067
-0.004000 0.095612 0.084251
0.035500 0.067428 0.054993
-0.009250 0.097694 0.084969
-0.028500 0.105003 0.081612
0.033250 0.112240 0.044017
0.000500 0.084636 0.082339
0.000250 0.059103 0.062543
0.049750 0.109967 0.028889
-0.012000 0.132708 0.098706
0.010500 0.059916 0.063864
-0.025250 0.094982 0.085090
-0.031500 0.139385 0.084234
0.047500 0.102489 0.035107
0.050000 0.117531 0.022677
0.017000 0.087476 0.063888
-0.033250 0.111007 0.078617
-0.018750 0.074299 0.079946
0.057500 0.092743 0.038148
0.065000 0.076593 0.030508
-0.003500 0.166767 0.006500
0.017250 0.051554 0.056299
-0.002000 0.143590 0.087827
-0.022250 0.126523 0.096443
-0.018500 0.087567 0.085693
0.006000 0.062705 0.064226
0.017250 0.125956 0.033731
-0.024750 0.149782 0.086988
0.054750 0.065890 0.045235
-0.017250 0.136096 0.096213
-0.045000 0.078772 0.058007
0.063500 0.084762 0.026686
0.053250 0.097653 0.037263
0.011250 0.104954 0.066885
-0.014000 0.098394 0.085328
-0.020750 0.149793 0.087947
0.049250 0.105741 0.030026
0.045750 0.044214 0.039403
0.035250 0.105286 0.045791
0.038250 0.110697 0.041728
0.020250 0.120644 0.042499
-0.003000 0.051300 0.060744
0.016000 0.044487 0.062446
-0.019750 0.049593 0.050780
0.035750 0.089172 0.058020
0.056250 0.079884 0.045003
0.054500 0.037999 0.027619
-0.033000 0.122959 0.088627
-0.013500 0.136788 0.097118
-0.016000 0.161453 0.046744
0.020000 0.067725 0.058472
-0.010000 0.112346 0.095197
-0.017500 0.090271 0.085811
-0.001250 0.086738 0.083417
0.011500 0.042582 0.070737
-0.062000 0.174370 0.031485
-0.015750 0.089612 0.086051
0.015250 0.045211 0.062684
-0.004250 0.086787 0.084136
-0.018000 0.101073 0.084608
0.010000 0.051590 0.063627
-0.003750 0.144285 0.089305
-0.040500 0.078102 0.067476
-0.022500 0.106431 0.082929
-0.019250 0.103088 0.084128
0.037000 0.066028 0.054871
0.039250 0.076721 0.058364
0.051000 0.116020 0.021277
0.043500 0.109748 0.037532
-0.020500 0.128581 0.096782
0.036750 0.061019 0.053303
-0.046000 0.084629 0.062568
0.051000 0.041353 0.032307
0.049000 0.046445 0.040413
0.057500 0.056009 0.036854
0.007250 0.090406 0.077306
-0.009500 0.045094 0.054877
0.039000 0.115472 0.038301
-0.043000 0.092000 0.069879
-0.042750 0.104918 0.066166
-0.031500 0.040052 0.060176
0.029750 0.100074 0.053233
-0.018750 0.113030 0.095537
0.036250 0.090529 0.057421
-0.039500 0.140527 0.071299
0.058250 0.099978 0.029381
0.013500 0.101471 0.066406
0.043750 0.050748 0.048254
-0.044750 0.079492 0.058368
-0.027500 0.045307 0.056918
0.000250 0.100157 0.080297
-0.041000 0.135015 0.074537
-0.018250 0.125216 0.099502
0.064000 0.080796 0.030124
-0.013000 0.054484 0.050531
0.035250 0.060986 0.052943
-0.028000 0.118925 0.089762
0.060250 0.049828 0.023677
-0.026750 0.075390 0.076588
0.012250 0.066159 0.064349
-0.020750 0.090919 0.085331
0.053000 0.107566 0.024563
-0.012000 0.154550 0.078958
-0.008750 0.097687 0.084849
-0.012750 0.111670 0.095084
0.049750 0.120975 0.019382
0.020250 0.112583 0.050845
-0.005750 0.126584 0.099727
0.038500 0.126305 0.025093
0.045500 0.085525 0.055380
0.042500 0.101379 0.039938
-0.016750 0.043269 0.057525
0.046250 0.045875 0.041809
0.028250 0.097332 0.054310
-0.019000 0.051656 0.050293
-0.037000 0.084090 0.074550
0.036250 0.036489 0.059586
0.046250 0.044163 0.038896
-0.016250 0.063837 0.069147
0.060000 0.094951 0.029118
0.018000 0.042912 0.060769
-0.021000 0.157179 0.050427
0.054500 0.086281 0.046158
0.000750 0.076890 0.078386
0.027250 0.104247 0.052636
-0.034250 0.039027 0.057177
-0.019000 0.151837 0.085550
-0.029500 0.149083 0.086150
0.011500 0.117604 0.053720
0.061500 0.092208 0.030767
-0.001250 0.130642 0.097461
-0.045500 0.101287 0.062933
0.004500 0.062694 0.064106
0.014250 0.081587 0.068197
0.051000 0.104940 0.028627
-0.025000 0.045307 0.056918
0.056750 0.077092 0.045125
-0.026500 0.088812 0.084135
-0.019250 0.108480 0.083047
-0.041000 0.093568 0.072993
-0.039000 0.091037 0.076467
-0.001000 0.100859 0.080656
-0.007250 0.123853 0.098935
-0.005250 0.119770 0.096330
0.005500 0.077384 0.075988
-0.024750 0.053324 0.045721
0.041250 0.091815 0.055625
0.058500 0.064731 0.040030
0.031500 0.078790 0.058247
-0.000750 0.069704 0.073709
0.035000 0.119701 0.037671
-0.009500 0.167114 0.036577
0.019250 0.123254 0.037546
-0.028750 0.081070 0.079824
-0.007250 0.121156 0.098142
0.021750 0.056544 0.050175
-0.025750 0.079767 0.080544
0.066250 0.051672 -0.001375
0.040750 0.128135 0.016835
0.012000 0.102885 0.067004
0.053750 0.071822 0.049124
-0.040500 0.111189 0.067124
0.020000 0.118648 0.045038
0.061250 0.063714 0.036477
0.036750 0.094526 0.054189
0.036500 0.039974 0.059456
0.058750 0.107841 0.016938
-0.003000 0.123136 0.096783
0.000500 0.073339 0.076468
-0.018000 0.106454 0.083408
-0.039000 0.129615 0.080765
-0.015750 0.117182 0.099726
0.018250 0.039561 0.062099
0.025000 0.125271 0.034494
-0.013750 0.062258 0.066866
0.044000 0.061639 0.052464
-0.001000 0.115007 0.094292
0.019750 0.055263 0.051373
0.015250 0.047768 0.060394
0.025250 0.075056 0.054765
0.048500 0.065602 0.049952
-0.041250 0.084447 0.069877
0.012000 0.061295 0.063865
0.039500 0.119521 0.033987
0.031250 0.038243 0.062824
0.021750 0.117936 0.044911
-0.068750 0.176554 0.028816
-0.016750 0.157893 0.051145
0.046000 0.077114 0.054409
0.023750 0.039652 0.062940
0.020500 0.085969 0.061970
-0.045000 0.102682 0.063053
-0.059250 0.157548 0.031013
0.004500 0.092616 0.079820
-0.011750 0.140195 0.095419
-0.011250 0.119868 0.100180
-0.034000 0.077071 0.071912
-0.006250 0.117074 0.095990
-0.041000 0.162918 0.048975
-0.002500 0.147652 0.082196
0.009250 0.053707 0.063861
0.005500 0.046962 0.072767
-0.010500 0.174357 0.029201
0.003250 0.080937 0.078026
-0.035250 0.156509 0.057381
0.044250 0.082212 0.057652
-0.050250 0.149170 0.041437
-0.028250 0.090843 0.084133
0.037500 0.112786 0.041094
-0.071750 0.172010 0.008903
0.029750 0.053880 0.051491
-0.060500 0.159703 0.029359
-0.046750 0.162198 0.048857
-0.037000 0.099368 0.078381
-0.041500 0.121254 0.078255
-0.013000 0.125906 0.099954
-0.040750 0.099782 0.073471
0.012500 0.048738 0.063034
-0.007500 0.101008 0.083410
-0.010750 0.136109 0.097572
-0.015250 0.072924 0.079706
0.039750 0.114755 0.038173
-0.046000 0.102509 0.059700
-0.041500 0.154374 0.055107
0.000750 0.126503 0.095310
-0.017750 0.157892 0.051025
0.018500 0.034659 0.061993
-0.042000 0.087990 0.071675
0.000500 0.062662 0.063746
0.043750 0.068032 0.053915
0.031500 0.048123 0.057030
-0.007750 0.163293 0.024274
0.055000 0.056406 0.041164
-0.067750 0.157315 0.018955
-0.001500 0.090108 0.083295
0.048750 0.084626 0.052384
0.028500 0.111733 0.047575
-0.008000 0.183175 0.015101
-0.001500 0.103546 0.079817
0.042750 0.063751 0.052708
-0.044500 0.091710 0.065207
-0.004000 0.166781 0.007642
-0.039250 0.139840 0.071898
-0.032500 0.110329 0.078737
0.000750 0.100137 0.079938
0.053250 0.034507 0.028511
-0.036500 0.155807 0.057981
0.066750 0.055840 -0.002872
0.019500 0.040272 0.062217
-0.008000 0.067710 0.074308
-0.003000 0.127254 0.099048
0.032500 0.088467 0.057900
-0.035250 0.148339 0.081836
-0.025250 0.151148 0.085670
0.000000 0.058391 0.062302
0.010250 0.036841 0.075316
0.032250 0.049666 0.051500
-0.002250 0.096208 0.082813
0.000750 0.129246 0.095649
-0.069750 0.176553 0.028435
-0.018750 0.095025 0.085808
-0.030750 0.082400 0.079464
0.012000 0.073964 0.067234
0.039250 0.044153 0.052598
-0.019500 0.041424 0.059932
-0.004000 0.096945 0.083771
0.046250 0.083407 0.054898
0.035250 0.048174 0.050664
-0.015500 0.153197 0.083153
0.031500 0.117061 0.041607
0.003250 0.093336 0.080419
-0.057000 0.164271 0.041660
-0.027250 0.122351 0.091686
0.037000 0.083073 0.060050
0.021000 0.050647 0.054260
0.017000 0.105229 0.058384
0.001500 0.076154 0.077667
0.007500 0.084191 0.075988
0.033500 0.096449 0.051076
0.005250 0.079480 0.076707
-0.014000 0.054484 0.050531
0.003000 0.047087 0.073968
0.026500 0.045608 0.059800
-0.032500 0.142151 0.084354
0.038750 0.068184 0.055714
0.024000 0.062904 0.051027
-0.068250 0.166149 0.017035
-0.019500 0.127238 0.098141
0.058250 0.069713 0.040797
-0.030000 0.066941 0.065430
0.004000 0.058516 0.063622
-0.039500 0.111304 0.069758
-0.053000 0.159982 0.045224
-0.024750 0.151149 0.085790
-0.017000 0.092988 0.085809
-0.024250 0.036781 0.062227
-0.045750 0.092344 0.064249
-0.025000 0.147726 0.088173
0.054000 0.114445 0.018732
-0.043750 0.127291 0.072387
-0.022250 0.104424 0.083648
-0.027250 0.126432 0.091458
-0.013250 0.164998 0.041785
-0.034750 0.082201 0.076707
-0.011000 0.073660 0.080426
0.012250 0.057815 0.063502
0.065250 0.048881 -0.000556
-0.009000 0.150451 0.085071
0.018500 0.050684 0.054620
0.022750 0.104402 0.055749
0.015000 0.049841 0.060148
-0.024000 0.065914 0.069388
0.048500 0.098681 0.041971
0.014250 0.070361 0.065192
-0.012000 0.053087 0.050529
0.026750 0.050030 0.055103
-0.010500 0.088947 0.086171
-0.006250 0.105649 0.080893
0.029000 0.068708 0.053676
-0.059750 0.169312 0.037968
0.022750 0.107101 0.053715
-0.004750 0.114338 0.094405
-0.003750 0.104266 0.080535
-0.007000 0.102332 0.082691
-0.004750 0.161786 0.021993
-0.016750 0.163583 0.044200
0.036000 0.046597 0.055834
0.032000 0.060212 0.052102
-0.008250 0.130677 0.099839
0.012250 0.043033 0.068455
-0.017250 0.081422 0.084618
-0.027000 0.128489 0.091232
-0.001000 0.117737 0.095650
0.011500 0.057126 0.063501
-0.001500 0.070467 0.074668
-0.007750 0.072894 0.079346
-0.039750 0.128901 0.080047
0.004500 0.126579 0.071909
0.060750 0.095491 0.026575
-0.032000 0.122971 0.089194
-0.021500 0.055672 0.048373
0.031000 0.100711 0.052036
-0.050250 0.154919 0.042823
-0.033000 0.154519 0.074763
0.003750 0.041320 0.078306
-0.035250 0.042468 0.049961
-0.003000 0.119098 0.096330
0.057250 0.098640 0.030778
0.051500 0.113260 0.023558
0.054250 0.040244 0.028504
-0.021250 0.151155 0.086389
0.045250 0.099473 0.043243
-0.066000 0.162507 0.020976
0.053750 0.100178 0.032433
-0.002000 0.150359 0.076443
0.007750 0.038517 0.077953
-0.035500 0.158616 0.054501
-0.032500 0.122964 0.088854
-0.069000 0.162425 0.015519
-0.051000 0.157130 0.046246
0.022250 0.105770 0.055151
0.009500 0.074241 0.070711
-0.010250 0.069978 0.076948
0.032500 0.096483 0.051675
-0.010500 0.076492 0.081984
0.042500 0.105672 0.040579
0.026250 0.041061 0.063056
-0.047000 0.096768 0.056705
-0.001500 0.062694 0.064106
-0.033250 0.086469 0.079463
0.003500 0.103367 0.076344
-0.014000 0.103756 0.083888
-0.027000 0.098346 0.084489
0.032750 0.044795 0.058722
-0.042750 0.160760 0.051139
0.023750 0.072178 0.053562
-0.016000 0.080721 0.084259
0.034500 0.121073 0.036657
-0.047500 0.086883 0.054903
-0.024000 0.103750 0.083768
0.025500 0.110430 0.049766
0.068250 0.077287 0.012959
0.038500 0.038195 0.055979
-0.026250 0.151144 0.085311
-0.035500 0.089876 0.079702
-0.003750 0.129304 0.099273
0.013250 0.125951 0.033604
-0.022000 0.139490 0.092476
0.009500 0.100346 0.071195
0.061750 0.087538 0.035087
-0.023000 0.071969 0.076348
0.023000 0.075779 0.055126
0.060250 0.068068 0.038002
-0.041750 0.159326 0.052581
-0.055750 0.156205 0.035839
-0.013500 0.095683 0.085449
-0.028750 0.144281 0.087947
-0.042000 0.151522 0.052715
0.007000 0.116416 0.059225
0.039750 0.099541 0.044261
0.057500 0.073310 0.041817
0.014500 0.069633 0.064712
-0.038250 0.127588 0.082561
-0.011000 0.112365 0.095763
0.012250 0.104924 0.066286
0.006500 0.099188 0.075148
-0.003750 0.117071 0.095877
0.043750 0.106288 0.039053
-0.003750 0.161758 0.020216
0.049500 0.105018 0.029898
-0.036000 0.135156 0.080643
-0.021000 0.140865 0.092928
-0.041250 0.135693 0.073698
0.058000 0.091369 0.038782
-0.042000 0.074727 0.059441
0.040500 0.127529 0.019757
0.051000 0.076824 0.050572
-0.039000 0.137799 0.074415
0.031750 0.127206 0.029283
-0.032000 0.102262 0.081374
-0.023500 0.084770 0.084257
-0.033250 0.072139 0.070111
0.050500 0.092128 0.049277
-0.016750 0.118528 0.100066
0.017000 0.117393 0.048087
0.033750 0.079562 0.059326
-0.001750 0.129288 0.098254
-0.008000 0.098353 0.084609
-0.007250 0.046432 0.060999
-0.043250 0.075372 0.058842
-0.006750 0.068443 0.074908
0.025500 0.036175 0.063070
-0.004250 0.126578 0.099388
0.010250 0.088814 0.073832
-0.008500 0.171445 0.031618
-0.013750 0.099060 0.085088
0.005250 0.055094 0.063859
-0.016250 0.110161 0.090558
-0.000750 0.039991 0.078790
-0.033250 0.100209 0.081255
-0.013250 0.173634 0.030725
0.013250 0.077297 0.065917
0.059000 0.085914 0.041449
0.000250 0.104156 0.078380
0.012500 0.102873 0.066765
-0.014250 0.145665 0.091569
-0.015500 0.095697 0.085688
0.031500 0.053194 0.051610
-0.003250 0.082650 0.082940
0.058500 0.057370 0.036347
-0.037250 0.037047 0.051899
-0.036000 0.137908 0.079684
-0.008500 0.079280 0.083061
-0.022250 0.053550 0.048128
0.016250 0.089571 0.064249
-0.030250 0.075210 0.074309
0.045000 0.072922 0.054162
-0.013250 0.099060 0.085088
0.056500 0.069208 0.043082
-0.001500 0.107531 0.077421
-0.019750 0.065303 0.070228
-0.008000 0.143607 0.092475
0.020500 0.051824 0.051974
-0.019000 0.036082 0.062229
-0.025500 0.132602 0.090552
-0.029500 0.103657 0.081972
0.003250 0.045288 0.076615
0.002750 0.085196 0.080661
-0.046500 0.154334 0.049714
-0.011000 0.042542 0.057287
0.034750 0.053927 0.051971
-0.036250 0.137202 0.079086
-0.032250 0.086518 0.080182
0.031250 0.100003 0.051916
-0.040750 0.072554 0.058239
-0.032000 0.068256 0.064711
-0.042250 0.075438 0.059681
0.032250 0.109554 0.046430
-0.018750 0.038111 0.061623
-0.012500 0.159999 0.046240
0.031250 0.051048 0.051256
-0.016000 0.138146 0.095986
-0.002500 0.070517 0.075268
0.029250 0.058065 0.051498
-0.010000 0.069226 0.076108
-0.000500 0.116370 0.094858
-0.006000 0.069175 0.075508
-0.041000 0.114255 0.074426
-0.016500 0.048963 0.051502
0.056250 0.108063 0.020751
-0.008500 0.151805 0.082195
-0.025000 0.046510 0.054993
0.041000 0.089794 0.056822
-0.006000 0.159743 0.031643
-0.039000 0.124116 0.082203
-0.028500 0.045270 0.056558
-0.024500 0.088844 0.084614
0.050000 0.061356 0.049344
0.042250 0.073770 0.056082
0.005000 0.100619 0.076225
-0.024000 0.046510 0.054993
-0.029750 0.148396 0.086389
-0.027500 0.154557 0.079917
-0.037500 0.154401 0.058822
0.016500 0.120023 0.044277
-0.025500 0.042747 0.059208
-0.008000 0.051884 0.052575
0.060500 0.059636 0.030261
-0.025500 0.048584 0.047760
-0.027000 0.120329 0.091800
-0.051000 0.151379 0.044099
-0.028250 0.155235 0.077639
-0.010000 0.159933 0.042432
0.043000 0.113915 0.035758
-0.005000 0.049744 0.059187
0.037750 0.125663 0.026999
-0.011000 0.109397 0.088182
0.009250 0.119713 0.053960
0.065750 0.089431 0.022238
-0.004000 0.104936 0.080295
0.026500 0.121212 0.039578
0.025500 0.043040 0.061969
0.008250 0.107743 0.067364
-0.036750 0.106742 0.075266
0.012000 0.041103 0.069901
-0.026000 0.048497 0.046873
0.038750 0.082373 0.059929
0.013750 0.106204 0.064131
-0.017000 0.113757 0.097235
-0.018500 0.066072 0.071188
0.061500 0.055064 0.026586
-0.049250 0.163621 0.046865
-0.006750 0.171989 0.005849
0.026750 0.116511 0.044656
-0.060250 0.158973 0.029487
-0.001500 0.036605 0.079399
0.014000 0.035410 0.068715
-0.030000 0.153184 0.081595
0.055500 0.099422 0.031796
0.041250 0.044918 0.046376
0.009000 0.059939 0.064104
-0.015500 0.076464 0.081624
0.011250 0.094184 0.071795
-0.028000 0.142215 0.088060
-0.060000 0.174372 0.031866
-0.027000 0.142217 0.088626
0.049750 0.099261 0.040063
-0.003250 0.058934 0.060742
-0.008500 0.103700 0.082810
-0.016000 0.146351 0.091229
0.044000 0.036948 0.044496
-0.007000 0.146350 0.089532
-0.019500 0.054390 0.049571
0.038000 0.077459 0.058964
-0.004750 0.046268 0.072769
0.046250 0.099405 0.042225
0.012000 0.075450 0.068674
0.058000 0.084650 0.043229
-0.002750 0.101567 0.081135
0.009750 0.091505 0.072993
-0.014500 0.045107 0.054997
0.040000 0.120880 0.032592
0.011000 0.076997 0.070952
-0.024750 0.125107 0.093951
-0.025000 0.146349 0.088739
0.063750 0.062435 0.022011
-0.016750 0.075750 0.081144
0.021500 0.046895 0.058715
0.064500 0.087435 0.024397
-0.045000 0.094474 0.065088
0.045750 0.083424 0.055137
0.010000 0.108379 0.066167
0.056750 0.071399 0.044100
0.055000 0.104831 0.026846
0.042000 0.095135 0.052632
-0.061250 0.156060 0.028730
-0.064500 0.168556 0.035178
0.004250 0.053695 0.063741
0.054750 0.116483 0.016196
-0.007750 0.185414 0.010910
-0.002000 0.125872 0.098142
-0.011250 0.117175 0.099500
0.044750 0.060920 0.052223
-0.014250 0.041983 0.058610
-0.023250 0.052121 0.047876
-0.029000 0.107662 0.080174
-0.036000 0.072610 0.067473
0.009000 0.085503 0.075269
0.035750 0.112162 0.042619
-0.058000 0.154009 0.033938
0.056000 0.087515 0.043997
-0.038000 0.126917 0.083279
-0.004500 0.059580 0.060262
0.002000 0.057080 0.063021
0.011000 0.044980 0.067128
-0.028500 0.153189 0.082194
-0.011750 0.133389 0.098592
0.056750 0.061503 0.043198
-0.033250 0.137284 0.082918
0.005750 0.049706 0.065674
-0.009000 0.095676 0.085329
0.050000 0.094833 0.047565
0.028250 0.100131 0.054311
0.056250 0.042818 0.025584
-0.008000 0.082053 0.084019
0.006000 0.113831 0.064132
-0.011500 0.045082 0.054757
-0.020500 0.048902 0.050902
-0.010500 0.180213 0.019800
-0.027500 0.140832 0.087707
0.033000 0.089824 0.057301
0.038250 0.113445 0.040205
-0.005750 0.133388 0.098479
-0.007250 0.066944 0.073348
0.037000 0.039909 0.058856
0.026500 0.054519 0.050892
-0.015000 0.077882 0.082462
0.021000 0.090067 0.061135
0.025750 0.096146 0.058022
0.041500 0.113977 0.036902
-0.018500 0.160034 0.048503
-0.042000 0.107006 0.066406
-0.018500 0.138138 0.095080
0.027250 0.060833 0.051263
0.051750 0.112534 0.023429
0.024500 0.065748 0.051632
-0.020500 0.113691 0.095197
-0.040500 0.137752 0.072140
0.050750 0.053288 0.045341
0.015250 0.078627 0.065319
-0.021250 0.127893 0.096555
-0.018000 0.036082 0.062229
-0.027750 0.131902 0.089646
0.036000 0.041399 0.059692
0.019750 0.093608 0.062213
0.028750 0.060855 0.051503
0.055500 0.049039 0.037872
-0.006750 0.185415 0.010656
0.041250 0.086404 0.058137
-0.009000 0.099693 0.084249
-0.027750 0.108367 0.080653
-0.031000 0.103620 0.081254
-0.008500 0.040171 0.074106
-0.030250 0.097604 0.083412
-0.068500 0.174364 0.030470
-0.009500 0.146351 0.090550
0.069000 0.068477 -0.015312
-0.028250 0.093578 0.084372
0.064750 0.095094 0.020850
0.016750 0.127292 0.031316
-0.005000 0.059558 0.060022
0.026000 0.098178 0.056945
0.066500 0.066508 0.011718
-0.035750 0.115290 0.083044
-0.001750 0.068268 0.072869
-0.027250 0.035317 0.061631
-0.003500 0.156694 0.024287
-0.011750 0.137471 0.097005
-0.007500 0.051979 0.053535
-0.009000 0.143608 0.092701
0.013000 0.117564 0.052642
-0.035750 0.082131 0.075748
-0.030250 0.108311 0.079456
0.061250 0.052872 0.025828
-0.033000 0.080205 0.077307
0.029750 0.055275 0.051493
-0.001500 0.054167 0.061457
0.000250 0.075503 0.078027
0.020000 0.073352 0.059559
-0.008500 0.087559 0.085573
0.001750 0.055011 0.063019
-0.013750 0.169304 0.037080
-0.007000 0.070668 0.077068
-0.002750 0.096215 0.082933
0.030000 0.107596 0.049286
-0.028250 0.153873 0.081116
-0.054000 0.162859 0.044202
-0.002750 0.130659 0.098593
0.066500 0.084315 0.020959
0.039750 0.069583 0.055836
0.031000 0.034686 0.062233
-0.010500 0.038693 0.073270
0.036000 0.093869 0.054907
0.002250 0.063415 0.064467
0.058500 0.041790 0.022542
-0.018750 0.043332 0.058125
-0.026250 0.066515 0.068429
0.024000 0.099620 0.057784
-0.002250 0.076992 0.079705
0.028750 0.093184 0.055147
-0.000500 0.050183 0.063510
-0.033500 0.144908 0.083874
0.036250 0.113515 0.041476
0.032250 0.114991 0.042621
0.050750 0.105641 0.028373
0.050000 0.098638 0.041335
0.061750 0.091512 0.031021
-0.010000 0.050333 0.051138
-0.018750 0.140188 0.094400
0.049750 0.035126 0.034221
0.032750 0.083690 0.058972
-0.005000 0.138142 0.095533
-0.031750 0.101599 0.081733
0.049750 0.091484 0.050235
0.040250 0.070992 0.056078
0.029500 0.108976 0.048688
0.026000 0.100882 0.055269
-0.040500 0.148795 0.061826
-0.014500 0.095690 0.085568
0.039750 0.042786 0.052963
-0.026250 0.140149 0.088287
-0.007250 0.155196 0.071886
0.032750 0.070933 0.055358
0.059750 0.083778 0.041065
-0.069750 0.166110 0.013862
0.054250 0.088378 0.046034
-0.002500 0.099560 0.081854
-0.032500 0.074356 0.072151
-0.012500 0.106466 0.083647
0.060250 0.089077 0.036616
0.010250 0.111658 0.061977
0.036750 0.034903 0.057910
0.050750 0.102945 0.031039
0.014250 0.049240 0.061111
0.027000 0.064374 0.051869
0.017750 0.075698 0.063038
-0.035500 0.039559 0.055614
-0.015750 0.159315 0.049104
0.033250 0.049618 0.051020
0.047250 0.098129 0.044260
0.030000 0.055984 0.051615
0.044750 0.055066 0.049332
-0.031250 0.044468 0.055600
0.021000 0.113241 0.049767
-0.015250 0.114460 0.098254
0.062500 0.043791 -0.000288
-0.070750 0.166081 0.011451
-0.009500 0.131356 0.099612
-0.029750 0.133248 0.087588
-0.022750 0.147038 0.089305
-0.029250 0.144273 0.087468
-0.066250 0.172186 0.033013
0.008500 0.126512 0.029920
0.064000 0.049674 0.000117
-0.024000 0.098380 0.085088
-0.027750 0.122341 0.091233
0.062500 0.072669 0.034194
0.016250 0.085393 0.063647
-0.021750 0.056372 0.048374
0.048750 0.045647 0.039527
0.040750 0.066713 0.054752
-0.019250 0.151155 0.086389
0.013250 0.107568 0.063652
0.031750 0.082297 0.058851
0.000250 0.117045 0.094971
-0.021250 0.157886 0.049827
0.012000 0.054322 0.063018
0.020750 0.097675 0.060417
-0.014000 0.168588 0.038223
0.008250 0.037081 0.077477
-0.016500 0.143609 0.093041
-0.047000 0.158598 0.050185
0.004000 0.061283 0.063745
0.021250 0.087915 0.060055
-0.028500 0.117541 0.088630
0.046750 0.064998 0.051030
0.000000 0.068941 0.072749
0.023750 0.098962 0.058502
-0.000250 0.081184 0.081382
0.038250 0.090514 0.057182
-0.011750 0.134749 0.098138
-0.004000 0.070578 0.075988
0.024500 0.040363 0.063058
-0.018250 0.047014 0.053070
0.006250 0.093196 0.078143
-0.012750 0.178005 0.022596
0.046000 0.052826 0.047874
-0.011500 0.131351 0.099272
-0.043750 0.093860 0.066405
0.010250 0.083340 0.073591
-0.053750 0.156254 0.038250
0.040750 0.117454 0.035382
0.036000 0.084432 0.059692
0.043500 0.054390 0.049571
-0.036750 0.109393 0.073230
0.005750 0.048473 0.067239
0.001500 0.133979 0.090778
-0.011500 0.066177 0.072388
-0.005250 0.043763 0.075298
0.062250 0.077600 0.034194
-0.030000 0.042721 0.058968
0.042500 0.102797 0.039940
0.028250 0.104235 0.052397
-0.012000 0.037080 0.071233
0.049750 0.081839 0.052379
-0.066000 0.168428 0.022741
-0.033000 0.043729 0.055242
-0.017000 0.103756 0.083888
-0.036250 0.109448 0.074427
0.040000 0.073113 0.056561
0.041000 0.054495 0.050652
0.048250 0.077738 0.053451
-0.037500 0.088338 0.076947
0.023000 0.115879 0.046053
-0.020000 0.063010 0.067587
-0.036000 0.102104 0.078380
-0.055250 0.157653 0.036471
0.008000 0.050317 0.064831
-0.025750 0.151147 0.085550
-0.040250 0.084522 0.070955
-0.009500 0.164227 0.038487
0.001750 0.109388 0.073110
-0.022250 0.060494 0.062664
0.015750 0.056135 0.060379
0.001250 0.108086 0.074667
0.070250 0.063765 -0.010853
-0.000500 0.045878 0.075653
-0.020000 0.079289 0.083181
-0.058250 0.170762 0.037330
0.009750 0.103620 0.067843
0.014750 0.064686 0.063268
0.057000 0.051884 0.037865
0.047750 0.059360 0.050420
-0.029750 0.035237 0.060911
-0.042000 0.093393 0.070118
-0.021500 0.034605 0.061513
0.041000 0.070258 0.055597
0.000500 0.139451 0.087588
-0.013000 0.138151 0.096552
-0.028000 0.040091 0.060537
-0.033500 0.095455 0.081616
0.008500 0.050293 0.064591
0.048250 0.107307 0.032317
0.046250 0.111682 0.033976
-0.067000 0.156616 0.020352
-0.013250 0.167867 0.038860
-0.027000 0.091553 0.084612
0.030000 0.051740 0.051134
-0.053000 0.149824 0.039024
-0.038250 0.101304 0.076225
0.016000 0.117435 0.049171
-0.031000 0.044322 0.018991
0.029750 0.115079 0.044273
0.010250 0.039623 0.075429
-0.042750 0.108912 0.062695
0.004250 0.082261 0.077546
-0.005500 0.136783 0.096552
0.000500 0.124453 0.095537
0.042250 0.106380 0.040579
-0.045750 0.125711 0.066285
-0.024250 0.125120 0.094631
0.014250 0.089708 0.066405
0.041500 0.087073 0.057778
0.001750 0.100078 0.078860
-0.004000 0.051203 0.059784
0.040000 0.042058 0.052725
-0.034000 0.104864 0.078858
-0.019500 0.103762 0.084008
-0.039250 0.087522 0.074910
0.042750 0.049314 0.048011
0.020250 0.075391 0.059082
0.045750 0.091690 0.053589
-0.017750 0.099073 0.085327
0.062250 0.078978 0.033813
-0.045500 0.103901 0.059700
0.023250 0.117923 0.044657
-0.008750 0.166378 0.035944
0.035000 0.122407 0.034753
0.038750 0.042989 0.054884
-0.046500 0.158600 0.050545
-0.005000 0.163928 0.017039
0.051250 0.058906 0.045477
-0.054750 0.156231 0.037108
-0.011000 0.159968 0.044463
-0.006750 0.125216 0.099502
-0.025500 0.076201 0.078266
-0.025000 0.106408 0.082450
0.031500 0.040285 0.062337
0.054250 0.037309 0.027873
-0.010250 0.126586 0.099841
-0.027000 0.073232 0.075148
0.021000 0.057253 0.050296
0.028000 0.098045 0.054550
-0.005750 0.075683 0.080305
-0.042000 0.152956 0.054750
-0.029750 0.134604 0.086630
0.056000 0.094298 0.040058
-0.043250 0.124587 0.075142
0.037000 0.123673 0.030940
0.017250 0.108633 0.056589
0.019250 0.090852 0.062572
0.038500 0.085791 0.059334
-0.006000 0.129993 0.099726
-0.007250 0.163277 0.023132
0.058500 0.040296 0.022036
-0.014750 0.140194 0.095306
-0.021750 0.137436 0.093042
0.058250 0.076736 0.040804
0.023500 0.107752 0.052638
-0.042250 0.102269 0.068441
0.042250 0.070933 0.055358
