0.066000 0.080419 0.025418
0.066500 0.080348 0.024528
0.067000 0.080266 0.023510
0.067500 0.080103 0.021475
0.068000 0.079442 0.013208
0.068500 0.079350 0.012063
0.051250 0.082975 0.048667
0.051750 0.082983 0.048786
0.052250 0.082983 0.048786
0.052750 0.082958 0.048427
0.053250 0.082931 0.048060
0.053750 0.082901 0.047678
0.054250 0.082870 0.047297
0.054750 0.082840 0.046915
0.055250 0.082799 0.046406
0.055750 0.082739 0.045643
0.056250 0.082698 0.045134
0.056750 0.082678 0.044880
0.057250 0.082627 0.044244
0.057750 0.082576 0.043608
0.058250 0.082526 0.042972
0.058750 0.082475 0.042336
0.059250 0.082424 0.041700
0.059750 0.082343 0.040682
0.060250 0.082242 0.039410
0.060750 0.082151 0.038265
0.061250 0.082120 0.037884
0.061750 0.081917 0.035340
0.062250 0.081643 0.031905
0.062750 0.081603 0.031396
0.063250 0.081562 0.030887
0.063750 0.081491 0.029997
0.064250 0.081400 0.028852
0.064750 0.081349 0.028216
0.065250 0.081207 0.026435
0.065750 0.081157 0.025799
0.066250 0.081086 0.024909
0.066750 0.081005 0.023891
0.067250 0.080842 0.021856
0.067750 0.080163 0.013333
0.068250 0.080112 0.012697
0.068750 0.079950 0.010662
0.051500 0.083691 0.048908
0.052000 0.083691 0.048908
0.052500 0.083674 0.048668
0.053000 0.083649 0.048308
0.053500 0.083621 0.047934
0.054000 0.083581 0.047425
0.054500 0.083550 0.047044
0.055000 0.083510 0.046535
0.055500 0.083470 0.046026
0.056000 0.083419 0.045390
0.056500 0.083389 0.045008
0.057000 0.083358 0.044626
0.057500 0.083308 0.043991
0.058000 0.083257 0.043354
0.058500 0.083217 0.042846
0.059000 0.083146 0.041955
0.059500 0.083106 0.041446
0.060000 0.083005 0.040174
0.060500 0.082934 0.039283
0.061000 0.082843 0.038138
0.061500 0.082803 0.037630
0.062000 0.082601 0.035085
0.062500 0.082601 0.035085
0.063000 0.082238 0.030506
0.063500 0.082197 0.029997
0.064000 0.082126 0.029106
0.064500 0.082035 0.027961
0.065000 0.081945 0.026816
0.065500 0.081864 0.025798
0.066000 0.081823 0.025290
0.066500 0.081732 0.024145
0.067000 0.081611 0.022618
0.067500 0.081298 0.018674
0.068000 0.080844 0.012949
0.068500 0.080763 0.011932
0.051250 0.084406 0.049149
0.051750 0.084406 0.049149
0.052250 0.084382 0.048789
0.052750 0.084365 0.048550
0.053250 0.084331 0.048063
0.053750 0.084291 0.047554
0.054250 0.084251 0.047045
0.054750 0.084220 0.046663
0.055250 0.084180 0.046154
0.055750 0.084140 0.045645
0.056250 0.084100 0.045137
0.056750 0.084059 0.044628
0.057250 0.084019 0.044119
0.057750 0.083979 0.043610
0.058250 0.083929 0.042974
0.058750 0.083878 0.042338
0.059250 0.083818 0.041574
0.059750 0.083778 0.041065
0.060250 0.083667 0.039666
0.060750 0.083597 0.038775
0.061250 0.083526 0.037885
0.061750 0.083486 0.037375
0.062250 0.083305 0.035085
0.062750 0.082933 0.030378
0.063250 0.082893 0.029869
0.063750 0.082812 0.028851
0.064250 0.082722 0.027706
0.064750 0.082641 0.026688
0.065250 0.082581 0.025925
0.065750 0.082531 0.025289
0.066250 0.082440 0.024144
0.066750 0.082410 0.023762
0.067250 0.082018 0.018800
0.067750 0.082048 0.019182
0.068250 0.081505 0.012311
0.051000 0.085138 0.049629
0.051500 0.085122 0.049390
0.052000 0.085105 0.049150
0.052500 0.085073 0.048671
0.053000 0.085049 0.048311
0.053500 0.085001 0.047682
0.054000 0.084951 0.047046
0.054500 0.084921 0.046664
0.055000 0.084880 0.046156
0.055500 0.084840 0.045647
0.056000 0.084800 0.045138
0.056500 0.084770 0.044756
0.057000 0.084730 0.044247
0.057500 0.084680 0.043611
0.058000 0.084650 0.043229
0.058500 0.084600 0.042593
0.059000 0.084550 0.041957
0.059500 0.084490 0.041193
0.060000 0.084400 0.040048
0.060500 0.084350 0.039412
0.061000 0.084270 0.038394
0.061500 0.084210 0.037630
0.062000 0.084009 0.035086
0.062500 0.083999 0.034958
0.063000 0.083609 0.029996
0.063500 0.083498 0.028596
0.064000 0.083418 0.027578
0.064500 0.083338 0.026560
0.065000 0.083298 0.026051
0.065500 0.083228 0.025161
0.066000 0.083178 0.024525
0.066500 0.083128 0.023888
0.067000 0.082767 0.019308
0.067500 0.082767 0.019308
0.068000 0.082767 0.019308
0.068500 0.082196 0.012055
0.051250 0.085844 0.049750
0.051750 0.085820 0.049391
0.052250 0.085789 0.048912
0.052750 0.085757 0.048432
0.053250 0.085711 0.047811
0.053750 0.085661 0.047175
0.054250 0.085621 0.046666
0.054750 0.085581 0.046157
0.055250 0.085541 0.045648
0.055750 0.085501 0.045139
0.056250 0.085471 0.044757
0.056750 0.085431 0.044248
0.057250 0.085381 0.043612
0.057750 0.085352 0.043230
0.058250 0.085302 0.042594
0.058750 0.085272 0.042212
0.059250 0.085202 0.041321
0.059750 0.085152 0.040685
0.060250 0.085072 0.039667
0.060750 0.085002 0.038776
0.061250 0.084923 0.037758
0.061750 0.084833 0.036613
0.062250 0.084723 0.035213
0.062750 0.084554 0.033050
0.063250 0.084284 0.029614
0.063750 0.084095 0.027196
0.064250 0.084035 0.026433
0.064750 0.083985 0.025796
0.065250 0.083945 0.025287
0.065750 0.083875 0.024397
0.066250 0.083835 0.023887
0.066750 0.083546 0.020197
0.067250 0.083526 0.019943
0.067750 0.083496 0.019561
0.068250 0.082928 0.012308
0.068750 0.082908 0.012053
0.051500 0.086535 0.049632
0.052000 0.086504 0.049153
0.052500 0.086472 0.048673
0.053000 0.086420 0.047940
0.053500 0.086371 0.047303
0.054000 0.086331 0.046794
0.054500 0.086281 0.046158
0.055000 0.086242 0.045649
0.055500 0.086202 0.045140
0.056000 0.086162 0.044631
0.056500 0.086123 0.044122
0.057000 0.086083 0.043613
0.057500 0.086043 0.043104
0.058000 0.086003 0.042595
0.058500 0.085964 0.042085
0.059000 0.085914 0.041449
0.059500 0.085864 0.040813
0.060000 0.085785 0.039795
0.060500 0.085745 0.039286
0.061000 0.085646 0.038013
0.061500 0.085566 0.036995
0.062000 0.085437 0.035340
0.062500 0.085388 0.034704
0.063000 0.085288 0.033432
0.063500 0.084762 0.026686
0.064000 0.084722 0.026177
0.064500 0.084682 0.025668
0.065000 0.084643 0.025159
0.065500 0.084563 0.024141
0.066000 0.084474 0.022996
0.066500 0.084315 0.020959
0.067000 0.084285 0.020578
0.067500 0.084235 0.019941
0.068000 0.083639 0.012306
0.068500 0.083639 0.012306
0.069000 0.083620 0.012051
0.051250 0.087258 0.049993
0.051750 0.087211 0.049274
0.052250 0.087179 0.048795
0.052750 0.087140 0.048196
0.053250 0.087081 0.047432
0.053750 0.087041 0.046923
0.054250 0.086992 0.046287
0.054750 0.086952 0.045777
0.055250 0.086903 0.045141
0.055750 0.086853 0.044505
0.056250 0.086804 0.043868
0.056750 0.086784 0.043614
0.057250 0.086735 0.042977
0.057750 0.086695 0.042468
0.058250 0.086665 0.042086
0.058750 0.086606 0.041323
0.059250 0.086547 0.040559
0.059750 0.086477 0.039668
0.060250 0.086428 0.039032
0.060750 0.086379 0.038395
0.061250 0.086260 0.036868
0.061750 0.086171 0.035722
0.062250 0.086121 0.035086
0.062750 0.086032 0.033941
0.063250 0.085973 0.033177
0.063750 0.085409 0.025922
0.064250 0.085380 0.025540
0.064750 0.085340 0.025031
0.065250 0.085281 0.024268
0.065750 0.085221 0.023504
0.066250 0.085112 0.022104
0.066750 0.085033 0.021086
0.067250 0.084994 0.020577
0.067750 0.084865 0.018922
0.068250 0.084361 0.012431
0.068750 0.084341 0.012176
0.069250 0.084302 0.011667
0.051500 0.087925 0.049515
0.052000 0.087894 0.049036
0.052500 0.087856 0.048437
0.053000 0.087791 0.047561
0.053500 0.087751 0.047051
0.054000 0.087702 0.046415
0.054500 0.087663 0.045906
0.055000 0.087604 0.045142
0.055500 0.087554 0.044506
0.056000 0.087515 0.043997
0.056500 0.087476 0.043487
0.057000 0.087426 0.042851
0.057500 0.087387 0.042342
0.058000 0.087338 0.041705
0.058500 0.087288 0.041069
0.059000 0.087229 0.040305
0.059500 0.087180 0.039669
0.060000 0.087121 0.038905
0.060500 0.087072 0.038268
0.061000 0.086993 0.037250
0.061500 0.086894 0.035977
0.062000 0.086835 0.035214
0.062500 0.086786 0.034577
0.063000 0.086707 0.033559
0.063500 0.086431 0.029995
0.064000 0.086067 0.025285
0.064500 0.086047 0.025030
0.065000 0.085998 0.024394
0.065500 0.085959 0.023885
0.066000 0.085880 0.022867
0.066500 0.085801 0.021848
0.067000 0.085732 0.020957
0.067500 0.085604 0.019302
0.068000 0.085092 0.012683
0.068500 0.085072 0.012429
0.069000 0.085053 0.012174
0.051250 0.088651 0.049874
0.051750 0.088613 0.049275
0.052250 0.088574 0.048676
0.052750 0.088514 0.047816
0.053250 0.088456 0.047052
0.053750 0.088417 0.046543
0.054250 0.088378 0.046034
0.054750 0.088309 0.045143
0.055250 0.088270 0.044633
0.055750 0.088231 0.044124
0.056250 0.088182 0.043488
0.056750 0.088134 0.042852
0.057250 0.088085 0.042215
0.057750 0.088026 0.041451
0.058250 0.087977 0.040815
0.058750 0.087918 0.040051
0.059250 0.087870 0.039415
0.059750 0.087811 0.038651
0.060250 0.087772 0.038142
0.060750 0.087684 0.036996
0.061250 0.087635 0.036360
0.061750 0.087538 0.035087
0.062250 0.087518 0.034833
0.062750 0.087440 0.033814
0.063250 0.087147 0.029996
0.063750 0.087166 0.030250
0.064250 0.086736 0.024650
0.064750 0.086717 0.024395
0.065250 0.086678 0.023886
0.065750 0.086629 0.023250
0.066250 0.086570 0.022486
0.066750 0.086473 0.021213
0.067250 0.086346 0.019559
0.067750 0.085837 0.012940
0.068250 0.085818 0.012685
0.068750 0.085798 0.012431
0.069250 0.085779 0.012176
0.051000 0.089354 0.049875
0.051500 0.089323 0.049396
0.052000 0.089286 0.048797
0.052500 0.089255 0.048318
0.053000 0.089170 0.047180
0.053500 0.089131 0.046670
0.054000 0.089083 0.046034
0.054500 0.089034 0.045398
0.055000 0.088996 0.044889
0.055500 0.088938 0.044125
0.056000 0.088899 0.043616
0.056500 0.088831 0.042725
0.057000 0.088783 0.042089
0.057500 0.088724 0.041325
0.058000 0.088676 0.040688
0.058500 0.088627 0.040052
0.059000 0.088560 0.039161
0.059500 0.088501 0.038397
0.060000 0.088463 0.037888
0.060500 0.088385 0.036870
0.061000 0.088327 0.036106
0.061500 0.088249 0.035088
0.062000 0.088220 0.034706
0.062500 0.088143 0.033688
0.063000 0.088123 0.033433
0.063500 0.087891 0.030379
0.064000 0.087455 0.024651
0.064500 0.087435 0.024397
0.065000 0.087397 0.023888
0.065500 0.087358 0.023378
0.066000 0.087309 0.022742
0.066500 0.087203 0.021342
0.067000 0.087106 0.020069
0.067500 0.086592 0.013324
0.068000 0.086554 0.012814
0.068500 0.086544 0.012687
0.069000 0.086505 0.012178
0.050750 0.090056 0.049875
0.051250 0.090034 0.049516
0.051750 0.089996 0.048917
0.052250 0.089959 0.048318
0.052750 0.089903 0.047562
0.053250 0.089855 0.046926
0.053750 0.089798 0.046162
0.054250 0.089759 0.045653
0.054750 0.089711 0.045016
0.055250 0.089663 0.044380
0.055750 0.089605 0.043616
0.056250 0.089548 0.042853
0.056750 0.089481 0.041962
0.057250 0.089423 0.041198
0.057750 0.089384 0.040689
0.058250 0.089327 0.039925
0.058750 0.089259 0.039035
0.059250 0.089202 0.038271
0.059750 0.089144 0.037507
0.060250 0.089077 0.036616
0.060750 0.089010 0.035726
0.061250 0.088961 0.035089
0.061750 0.088923 0.034580
0.062250 0.088865 0.033816
0.062750 0.088836 0.033435
0.063250 0.088606 0.030380
0.063750 0.088606 0.030380
0.064250 0.088145 0.024271
0.064750 0.088116 0.023889
0.065250 0.088077 0.023380
0.065750 0.088020 0.022616
0.066250 0.087972 0.021980
0.066750 0.087856 0.020453
0.067250 0.087770 0.019307
0.067750 0.087328 0.013453
0.068250 0.087280 0.012816
0.068750 0.087241 0.012307
0.069250 0.087212 0.011925
0.050500 0.090767 0.049995
0.051000 0.090730 0.049396
0.051500 0.090707 0.049037
0.052000 0.090670 0.048438
0.052500 0.090617 0.047690
0.053000 0.090569 0.047053
0.053500 0.090512 0.046290
0.054000 0.090474 0.045781
0.054500 0.090426 0.045144
0.055000 0.090379 0.044508
0.055500 0.090312 0.043617
0.056000 0.090255 0.042853
0.056500 0.090207 0.042217
0.057000 0.090131 0.041199
0.057500 0.090102 0.040817
0.058000 0.090045 0.040053
0.058500 0.089969 0.039035
0.059000 0.089902 0.038144
0.059500 0.089816 0.036999
0.060000 0.089759 0.036235
0.060500 0.089712 0.035599
0.061000 0.089674 0.035090
0.061500 0.089626 0.034454
0.062000 0.089569 0.033690
0.062500 0.089540 0.033308
0.063000 0.089321 0.030381
0.063500 0.089330 0.030508
0.064000 0.088854 0.024145
0.064500 0.088825 0.023763
0.065000 0.088797 0.023381
0.065500 0.088749 0.022745
0.066000 0.088692 0.021982
0.066500 0.088615 0.020963
0.067000 0.088501 0.019436
0.067500 0.088072 0.013709
0.068000 0.088025 0.013073
0.068500 0.087977 0.012436
0.069000 0.087939 0.011927
0.050250 0.091462 0.049876
0.050750 0.091432 0.049397
0.051250 0.091403 0.048918
0.051750 0.091366 0.048319
0.052250 0.091321 0.047690
0.052750 0.091274 0.047054
0.053250 0.091227 0.046417
0.053750 0.091179 0.045781
0.054250 0.091132 0.045145
0.054750 0.091075 0.044381
0.055250 0.091028 0.043745
0.055750 0.090971 0.042981
0.056250 0.090915 0.042218
0.056750 0.090858 0.041454
0.057250 0.090820 0.040945
0.057750 0.090763 0.040182
0.058250 0.090669 0.038909
0.058750 0.090556 0.037382
0.059250 0.090480 0.036364
0.059750 0.090433 0.035727
0.060250 0.090395 0.035218
0.060750 0.090367 0.034836
0.061250 0.090329 0.034327
0.061750 0.090263 0.033437
0.062250 0.090055 0.030637
0.062750 0.090045 0.030510
0.063250 0.090036 0.030382
0.063750 0.089563 0.024019
0.064250 0.089544 0.023765
0.064750 0.089516 0.023383
0.065250 0.089487 0.023001
0.065750 0.089431 0.022238
0.066250 0.089346 0.021092
0.066750 0.089223 0.019438
0.067250 0.088826 0.014093
0.067750 0.088769 0.013329
0.068250 0.088741 0.012947
0.068750 0.088665 0.011929
0.049500 0.092172 0.049996
0.050000 0.092150 0.049637
0.050500 0.092128 0.049277
0.051000 0.092106 0.048918
0.051500 0.092063 0.048199
0.052000 0.092025 0.047690
0.052500 0.091978 0.047054
0.053000 0.091932 0.046418
0.053500 0.091885 0.045782
0.054000 0.091847 0.045273
0.054500 0.091791 0.044509
0.055000 0.091725 0.043618
0.055500 0.091688 0.043109
0.056000 0.091641 0.042473
0.056500 0.091585 0.041709
0.057000 0.091529 0.040946
0.057500 0.091472 0.040182
0.058000 0.091369 0.038782
0.058500 0.091219 0.036746
0.059000 0.091172 0.036110
0.059500 0.091126 0.035474
0.060000 0.091069 0.034710
0.060500 0.091051 0.034456
0.061000 0.091023 0.034074
0.061500 0.090957 0.033183
0.062000 0.090788 0.030892
0.062500 0.090779 0.030765
0.063000 0.090741 0.030256
0.063500 0.090282 0.024021
0.064000 0.090263 0.023766
0.064500 0.090235 0.023384
0.065000 0.090207 0.023003
0.065500 0.090160 0.022366
0.066000 0.090085 0.021348
0.066500 0.089973 0.019821
0.067000 0.089560 0.014222
0.067500 0.089513 0.013586
0.068000 0.089467 0.012949
0.068500 0.089382 0.011804
0.049250 0.092860 0.049757
0.049750 0.092831 0.049278
0.050250 0.092817 0.049038
0.050750 0.092788 0.048559
0.051250 0.092757 0.048073
0.051750 0.092711 0.047436
0.052250 0.092674 0.046927
0.052750 0.092618 0.046164
0.053250 0.092581 0.045655
0.053750 0.092544 0.045146
0.054250 0.092488 0.044382
0.054750 0.092432 0.043619
0.055250 0.092404 0.043237
0.055750 0.092358 0.042601
0.056250 0.092293 0.041710
0.056750 0.092237 0.040946
0.057250 0.092181 0.040183
0.057750 0.092060 0.038529
0.058250 0.091921 0.036620
0.058750 0.091856 0.035729
0.059250 0.091819 0.035220
0.059750 0.091772 0.034584
0.060250 0.091744 0.034202
0.060750 0.091707 0.033693
0.061250 0.091577 0.031912
0.061750 0.091512 0.031021
0.062250 0.091512 0.031021
0.062750 0.091419 0.029748
0.063250 0.091001 0.024022
0.063750 0.090982 0.023768
0.064250 0.090964 0.023513
0.064750 0.090927 0.023004
0.065250 0.090899 0.022622
0.065750 0.090824 0.021604
0.066250 0.090694 0.019823
0.066750 0.090583 0.018296
0.067250 0.090248 0.013715
0.067750 0.090165 0.012570
0.068250 0.090109 0.011806
0.068750 0.090007 0.010406
0.048500 0.093563 0.049757
0.049000 0.093549 0.049518
0.049500 0.093520 0.049039
0.050000 0.093499 0.048679
0.050500 0.093478 0.048320
0.051000 0.093443 0.047818
0.051500 0.093397 0.047182
0.052000 0.093351 0.046546
0.052500 0.093305 0.045910
0.053000 0.093277 0.045528
0.053500 0.093240 0.045019
0.054000 0.093176 0.044128
0.054500 0.093130 0.043492
0.055000 0.093102 0.043110
0.055500 0.093065 0.042601
0.056000 0.093000 0.041711
0.056500 0.092945 0.040947
0.057000 0.092844 0.039547
0.057500 0.092743 0.038148
0.058000 0.092623 0.036494
0.058500 0.092549 0.035476
0.059000 0.092503 0.034839
0.059500 0.092466 0.034330
0.060000 0.092429 0.033821
0.060500 0.092356 0.032803
0.061000 0.092263 0.031531
0.061500 0.092208 0.030767
0.062000 0.092199 0.030640
0.062500 0.092052 0.028604
0.063000 0.091729 0.024151
0.063500 0.091711 0.023896
0.064000 0.091683 0.023515
0.064500 0.091665 0.023260
0.065000 0.091628 0.022751
0.065500 0.091545 0.021606
0.066000 0.091425 0.019952
0.066500 0.091361 0.019061
0.067000 0.090974 0.013717
0.067500 0.090882 0.012444
0.068000 0.090789 0.011172
0.068500 0.090743 0.010535
0.047750 0.094273 0.049877
0.048250 0.094238 0.049279
0.048750 0.094224 0.049039
0.049250 0.094202 0.048680
0.049750 0.094181 0.048320
0.050250 0.094156 0.047946
0.050750 0.094110 0.047310
0.051250 0.094074 0.046801
0.051750 0.094028 0.046165
0.052250 0.093992 0.045656
0.052750 0.093946 0.045020
0.053250 0.093919 0.044638
0.053750 0.093873 0.044002
0.054250 0.093836 0.043493
0.054750 0.093791 0.042856
0.055250 0.093745 0.042220
0.055750 0.093690 0.041457
0.056250 0.093617 0.040439
0.056750 0.093517 0.039039
0.057250 0.093407 0.037512
0.057750 0.093334 0.036494
0.058250 0.093252 0.035349
0.058750 0.093197 0.034586
0.059250 0.093142 0.033822
0.059750 0.093096 0.033186
0.060250 0.092996 0.031787
0.060750 0.092941 0.031023
0.061250 0.092877 0.030132
0.061750 0.092859 0.029878
0.062250 0.092466 0.024407
0.062750 0.092448 0.024152
0.063250 0.092430 0.023898
0.063750 0.092411 0.023643
0.064250 0.092375 0.023134
0.064750 0.092347 0.022752
0.065250 0.092274 0.021735
0.065750 0.092165 0.020208
0.066250 0.092083 0.019063
0.066750 0.091772 0.014736
0.067250 0.091562 0.011810
0.067750 0.091489 0.010792
0.068250 0.091443 0.010156
0.047000 0.094968 0.049758
0.047500 0.094948 0.049399
0.048000 0.094913 0.048800
0.048500 0.094899 0.048560
0.049000 0.094885 0.048321
0.049500 0.094860 0.047947
0.050000 0.094833 0.047565
0.050500 0.094787 0.046929
0.051000 0.094742 0.046293
0.051500 0.094706 0.045784
0.052000 0.094661 0.045147
0.052500 0.094625 0.044638
0.053000 0.094606 0.044384
0.053500 0.094552 0.043620
0.054000 0.094534 0.043366
0.054500 0.094480 0.042603
0.055000 0.094425 0.041839
0.055500 0.094371 0.041076
0.056000 0.094298 0.040058
0.056500 0.094190 0.038531
0.057000 0.094117 0.037513
0.057500 0.094054 0.036623
0.058000 0.093954 0.035223
0.058500 0.093891 0.034332
0.059000 0.093773 0.032678
0.059500 0.093728 0.032042
0.060000 0.093656 0.031024
0.060500 0.093610 0.030388
0.061000 0.093592 0.030134
0.061500 0.093556 0.029625
0.062000 0.093230 0.025044
0.062500 0.093185 0.024408
0.063000 0.093158 0.024026
0.063500 0.093131 0.023645
0.064000 0.093103 0.023263
0.064500 0.093067 0.022754
0.065000 0.093022 0.022118
0.065500 0.092904 0.020464
0.066000 0.092841 0.019573
0.066500 0.092506 0.014866
0.067000 0.092452 0.014102
0.067500 0.092216 0.010794
0.068000 0.092162 0.010030
0.044750 0.095685 0.049998
0.045250 0.095671 0.049758
0.045750 0.095664 0.049639
0.046250 0.095658 0.049519
0.046750 0.095644 0.049279
0.047250 0.095623 0.048920
0.047750 0.095589 0.048321
0.048250 0.095564 0.047947
0.048750 0.095555 0.047820
0.049250 0.095519 0.047311
0.049750 0.095483 0.046802
0.050250 0.095447 0.046293
0.050750 0.095411 0.045784
0.051250 0.095375 0.045275
0.051750 0.095330 0.044639
0.052250 0.095304 0.044257
0.052750 0.095286 0.044003
0.053250 0.095241 0.043367
0.053750 0.095205 0.042858
0.054250 0.095160 0.042222
0.054750 0.095088 0.041204
0.055250 0.095043 0.040568
0.055750 0.094972 0.039550
0.056250 0.094864 0.038023
0.056750 0.094828 0.037514
0.057250 0.094702 0.035733
0.057750 0.094577 0.033952
0.058250 0.094478 0.032552
0.058750 0.094433 0.031916
0.059250 0.094379 0.031153
0.059750 0.094352 0.030771
0.060250 0.094316 0.030262
0.060750 0.094289 0.029880
0.061250 0.094020 0.026063
0.061750 0.093984 0.025555
0.062250 0.093912 0.024537
0.062750 0.093886 0.024155
0.063250 0.093859 0.023773
0.063750 0.093814 0.023137
0.064250 0.093787 0.022756
0.064750 0.093733 0.021992
0.065250 0.093634 0.020593
0.065750 0.093580 0.019829
0.066250 0.093482 0.018430
0.066750 0.093177 0.014104
0.067250 0.092943 0.010796
0.067750 0.092818 0.009015
0.043500 0.096374 0.049759
0.044000 0.096354 0.049399
0.044500 0.096354 0.049399
0.045000 0.096340 0.049160
0.045500 0.096340 0.049160
0.046000 0.096320 0.048801
0.046500 0.096313 0.048681
0.047000 0.096292 0.048322
0.047500 0.096250 0.047693
0.048000 0.096223 0.047311
0.048500 0.096205 0.047057
0.049000 0.096179 0.046675
0.049500 0.096134 0.046039
0.050000 0.096108 0.045657
0.050500 0.096063 0.045021
0.051000 0.096028 0.044512
0.051500 0.096010 0.044258
0.052000 0.095974 0.043749
0.052500 0.095948 0.043367
0.053000 0.095912 0.042858
0.053500 0.095885 0.042477
0.054000 0.095770 0.040823
0.054500 0.095734 0.040314
0.055000 0.095716 0.040059
0.055500 0.095583 0.038151
0.056000 0.095538 0.037515
0.056500 0.095521 0.037261
0.057000 0.095218 0.032935
0.057500 0.095200 0.032681
0.058000 0.095156 0.032044
0.058500 0.095120 0.031536
0.059000 0.095067 0.030772
0.059500 0.095040 0.030390
0.060000 0.094951 0.029118
0.060500 0.094827 0.027337
0.061000 0.094765 0.026447
0.061500 0.094738 0.026065
0.062000 0.094649 0.024793
0.062500 0.094613 0.024284
0.063000 0.094587 0.023902
0.063500 0.094533 0.023139
0.064000 0.094498 0.022630
0.064500 0.094453 0.021994
0.065000 0.094355 0.020594
0.065500 0.094311 0.019958
0.066000 0.094213 0.018559
0.066500 0.093920 0.014360
0.067000 0.093653 0.010544
0.034750 0.097090 0.049999
0.035250 0.097090 0.049999
0.035750 0.097090 0.049999
0.036250 0.097090 0.049999
0.038250 0.097077 0.049759
0.038750 0.097077 0.049759
0.039250 0.097084 0.049879
0.039750 0.097077 0.049759
0.040250 0.097077 0.049759
0.040750 0.097077 0.049759
0.041250 0.097063 0.049520
0.041750 0.097057 0.049400
0.042250 0.097050 0.049280
0.042750 0.097050 0.049280
0.043250 0.097036 0.049041
0.043750 0.097023 0.048801
0.044250 0.097016 0.048681
0.044750 0.097003 0.048442
0.045250 0.096996 0.048322
0.045750 0.096972 0.047948
0.046250 0.096963 0.047821
0.046750 0.096945 0.047566
0.047250 0.096901 0.046930
0.047750 0.096875 0.046548
0.048250 0.096857 0.046294
0.048750 0.096831 0.045912
0.049250 0.096787 0.045276
0.049750 0.096769 0.045022
0.050250 0.096707 0.044131
0.050750 0.096699 0.044004
0.051250 0.096663 0.043495
0.051750 0.096637 0.043113
0.052250 0.096619 0.042859
0.052750 0.096584 0.042350
0.053250 0.096540 0.041714
0.053750 0.096381 0.039424
0.054250 0.096381 0.039424
0.054750 0.096284 0.038025
0.055250 0.096258 0.037643
0.055750 0.096214 0.037007
0.056250 0.096196 0.036753
0.056750 0.095923 0.032809
0.057250 0.095879 0.032173
0.057750 0.095852 0.031791
0.058250 0.095808 0.031155
0.058750 0.095773 0.030646
0.059250 0.095711 0.029756
0.059750 0.095632 0.028611
0.060250 0.095552 0.027466
0.060750 0.095491 0.026575
0.061250 0.095464 0.026193
0.061750 0.095376 0.024921
0.062250 0.095341 0.024412
0.062750 0.095323 0.024158
0.063250 0.095244 0.023013
0.063750 0.095226 0.022759
0.064250 0.095156 0.021741
0.064750 0.095094 0.020850
0.065250 0.095032 0.019960
0.065750 0.094979 0.019196
0.066250 0.094636 0.014235
0.066750 0.094591 0.013599
0.034000 0.097780 0.049759
0.034500 0.097760 0.049400
0.035000 0.097740 0.049041
0.035500 0.097726 0.048801
0.036000 0.097726 0.048801
0.036500 0.097726 0.048801
0.037000 0.097726 0.048801
0.037500 0.097720 0.048682
0.038000 0.097720 0.048682
0.038500 0.097720 0.048682
0.039000 0.097720 0.048682
0.039500 0.097720 0.048682
0.040000 0.097720 0.048682
0.040500 0.097713 0.048562
0.041000 0.097713 0.048562
0.041500 0.097707 0.048442
0.042000 0.097707 0.048442
0.042500 0.097700 0.048322
0.043000 0.097693 0.048203
0.043500 0.097684 0.048075
0.044000 0.097676 0.047948
0.044500 0.097650 0.047567
0.045000 0.097650 0.047567
0.045500 0.097623 0.047185
0.046000 0.097615 0.047058
0.046500 0.097588 0.046676
0.047000 0.097562 0.046294
0.047500 0.097501 0.045404
0.048000 0.097501 0.045404
0.048500 0.097484 0.045150
0.049000 0.097440 0.044513
0.049500 0.097414 0.044132
0.050000 0.097361 0.043368
0.050500 0.097352 0.043241
0.051000 0.097318 0.042732
0.051500 0.097291 0.042351
0.052000 0.097274 0.042096
0.052500 0.097230 0.041460
0.053000 0.097186 0.040824
0.053500 0.097020 0.038407
0.054000 0.096994 0.038026
0.054500 0.096942 0.037262
0.055000 0.096924 0.037008
0.055500 0.096671 0.033319
0.056000 0.096645 0.032937
0.056500 0.096610 0.032428
0.057000 0.096584 0.032046
0.057500 0.096549 0.031538
0.058000 0.096505 0.030902
0.058500 0.096470 0.030393
0.059000 0.096409 0.029502
0.059500 0.096348 0.028612
0.060000 0.096287 0.027721
0.060500 0.096226 0.026831
0.061000 0.096182 0.026195
0.061500 0.096112 0.025177
0.062000 0.096068 0.024541
0.062500 0.096042 0.024159
0.063000 0.095990 0.023396
0.063500 0.095937 0.022633
0.064000 0.095894 0.021997
0.064500 0.095824 0.020979
0.065000 0.095736 0.019707
0.065500 0.095701 0.019198
0.066000 0.095352 0.014110
0.066500 0.095334 0.013855
0.033750 0.098489 0.049880
0.034250 0.098436 0.048921
0.034750 0.098410 0.048442
0.035250 0.098388 0.048076
0.035750 0.098371 0.047821
0.036250 0.098371 0.047821
0.036750 0.098362 0.047694
0.037250 0.098362 0.047694
0.037750 0.098362 0.047694
0.038250 0.098354 0.047567
0.038750 0.098362 0.047694
0.039250 0.098354 0.047567
0.039750 0.098354 0.047567
0.040250 0.098354 0.047567
0.040750 0.098362 0.047694
0.041250 0.098362 0.047694
0.041750 0.098354 0.047567
0.042250 0.098336 0.047313
0.042750 0.098336 0.047313
0.043250 0.098319 0.047058
0.043750 0.098319 0.047058
0.044250 0.098293 0.046677
0.044750 0.098293 0.046677
0.045250 0.098276 0.046422
0.045750 0.098250 0.046040
0.046250 0.098233 0.045786
0.046750 0.098198 0.045277
0.047250 0.098129 0.044260
0.047750 0.098146 0.044514
0.048250 0.098129 0.044260
0.048750 0.098085 0.043624
0.049250 0.098007 0.042479
0.049750 0.097999 0.042351
0.050250 0.097999 0.042351
0.050750 0.097973 0.041970
0.051250 0.097930 0.041334
0.051750 0.097921 0.041207
0.052250 0.097878 0.040571
0.052750 0.097679 0.037645
0.053250 0.097653 0.037263
0.053750 0.097419 0.033828
0.054250 0.097402 0.033574
0.054750 0.097384 0.033320
0.055250 0.097358 0.032938
0.055750 0.097332 0.032557
0.056250 0.097315 0.032302
0.056750 0.097280 0.031793
0.057250 0.097246 0.031284
0.057750 0.097220 0.030903
0.058250 0.097176 0.030267
0.058750 0.097133 0.029631
0.059250 0.097073 0.028740
0.059750 0.097029 0.028104
0.060250 0.096951 0.026959
0.060750 0.096908 0.026323
0.061250 0.096848 0.025433
0.061750 0.096796 0.024670
0.062250 0.096761 0.024161
0.062750 0.096718 0.023525
0.063250 0.096674 0.022889
0.063750 0.096605 0.021871
0.064250 0.096562 0.021235
0.064750 0.096432 0.019327
0.065250 0.096406 0.018945
0.065750 0.096068 0.013984
0.066250 0.096042 0.013603
0.033500 0.099198 0.050000
0.034000 0.099114 0.048443
0.034500 0.099101 0.048203
0.035000 0.099067 0.047695
0.035500 0.099049 0.047440
0.036000 0.099032 0.047186
0.036500 0.099006 0.046804
0.037000 0.098989 0.046550
0.037500 0.098981 0.046423
0.038000 0.098972 0.046295
0.038500 0.098972 0.046295
0.039000 0.098964 0.046168
0.039500 0.098972 0.046295
0.040000 0.098972 0.046295
0.040500 0.098972 0.046295
0.041000 0.098964 0.046168
0.041500 0.098946 0.045914
0.042000 0.098938 0.045787
0.042500 0.098946 0.045914
0.043000 0.098929 0.045659
0.043500 0.098921 0.045532
0.044000 0.098904 0.045278
0.044500 0.098895 0.045151
0.045000 0.098886 0.045023
0.045500 0.098861 0.044642
0.046000 0.098835 0.044260
0.046500 0.098792 0.043624
0.047000 0.098766 0.043243
0.047500 0.098775 0.043370
0.048000 0.098749 0.042988
0.048500 0.098681 0.041971
0.049000 0.098638 0.041335
0.049500 0.098646 0.041462
0.050000 0.098638 0.041335
0.050500 0.098612 0.040953
0.051000 0.098586 0.040571
0.051500 0.098569 0.040317
0.052000 0.098166 0.034338
0.052500 0.098149 0.034084
0.053000 0.098123 0.033702
0.053500 0.098114 0.033575
0.054000 0.098097 0.033321
0.054500 0.098072 0.032939
0.055000 0.098054 0.032685
0.055500 0.098029 0.032303
0.056000 0.098012 0.032049
0.056500 0.097986 0.031667
0.057000 0.097960 0.031286
0.057500 0.097934 0.030904
0.058000 0.097900 0.030395
0.058500 0.097857 0.029759
0.059000 0.097806 0.028996
0.059500 0.097763 0.028360
0.060000 0.097694 0.027342
0.060500 0.097634 0.026452
0.061000 0.097583 0.025689
0.061500 0.097531 0.024925
0.062000 0.097488 0.024289
0.062500 0.097454 0.023781
0.063000 0.097394 0.022890
0.063500 0.097334 0.022000
0.064000 0.097274 0.021109
0.064500 0.097154 0.019328
0.065000 0.097102 0.018565
0.065500 0.096802 0.014113
0.066000 0.096759 0.013477
0.033250 0.099856 0.049162
0.033750 0.099824 0.048563
0.034250 0.099811 0.048323
0.034750 0.099779 0.047822
0.035250 0.099754 0.047441
0.035750 0.099728 0.047059
0.036250 0.099711 0.046805
0.036750 0.099677 0.046296
0.037250 0.099652 0.045914
0.037750 0.099618 0.045406
0.038250 0.099575 0.044769
0.038750 0.099567 0.044642
0.039250 0.099558 0.044515
0.039750 0.099541 0.044261
0.040250 0.099558 0.044515
0.040750 0.099567 0.044642
0.041250 0.099567 0.044642
0.041750 0.099567 0.044642
0.042250 0.099558 0.044515
0.042750 0.099550 0.044388
0.043250 0.099541 0.044261
0.043750 0.099524 0.044006
0.044250 0.099516 0.043879
0.044750 0.099507 0.043752
0.045250 0.099473 0.043243
0.045750 0.099439 0.042734
0.046250 0.099405 0.042225
0.046750 0.099363 0.041590
0.047250 0.099371 0.041717
0.047750 0.099303 0.040699
0.048250 0.099295 0.040572
0.048750 0.099303 0.040699
0.049250 0.099303 0.040699
0.049750 0.099261 0.040063
0.050250 0.099227 0.039554
0.050750 0.098878 0.034339
0.051250 0.098853 0.033958
0.051750 0.098844 0.033831
0.052250 0.098827 0.033576
0.052750 0.098819 0.033449
0.053250 0.098810 0.033322
0.053750 0.098793 0.033067
0.054250 0.098776 0.032813
0.054750 0.098759 0.032559
0.055250 0.098742 0.032304
0.055750 0.098717 0.031923
0.056250 0.098691 0.031541
0.056750 0.098674 0.031287
0.057250 0.098640 0.030778
0.057750 0.098615 0.030396
0.058250 0.098589 0.030015
0.058750 0.098530 0.029124
0.059250 0.098479 0.028361
0.059750 0.098436 0.027725
0.060250 0.098360 0.026580
0.060750 0.098309 0.025817
0.061250 0.098267 0.025181
0.061750 0.098215 0.024418
0.062250 0.098182 0.023909
0.062750 0.098105 0.022764
0.063250 0.098046 0.021874
0.063750 0.097986 0.020984
0.064250 0.097833 0.018694
0.064750 0.097536 0.014242
0.065250 0.097519 0.013988
0.065750 0.097485 0.013479
0.033000 0.100559 0.049162
0.033500 0.100540 0.048803
0.034000 0.100521 0.048444
0.034500 0.100492 0.047950
0.035000 0.100475 0.047696
0.035500 0.100449 0.047314
0.036000 0.100424 0.046932
0.036500 0.100407 0.046678
0.037000 0.100323 0.045406
0.037500 0.100281 0.044770
0.038000 0.100264 0.044516
0.038500 0.100239 0.044134
0.039000 0.100222 0.043880
0.039500 0.100205 0.043625
0.040000 0.100189 0.043371
0.040500 0.100155 0.042862
0.041000 0.100138 0.042608
0.041500 0.100121 0.042353
0.042000 0.100087 0.041845
0.042500 0.100062 0.041463
0.043000 0.100020 0.040827
0.043500 0.099944 0.039682
0.044000 0.099894 0.038919
0.044500 0.099860 0.038411
0.045000 0.099852 0.038283
0.045500 0.099801 0.037520
0.046000 0.099784 0.037266
0.046500 0.099751 0.036757
0.047000 0.099709 0.036121
0.047500 0.099928 0.039428
0.048000 0.099658 0.035358
0.048500 0.099625 0.034849
0.049000 0.099599 0.034467
0.049500 0.099582 0.034213
0.050000 0.099566 0.033959
0.050500 0.099557 0.033832
0.051000 0.099540 0.033577
0.051500 0.099532 0.033450
0.052000 0.099524 0.033323
0.052500 0.099507 0.033068
0.053000 0.099498 0.032941
0.053500 0.099490 0.032814
0.054000 0.099481 0.032687
0.054500 0.099456 0.032305
0.055000 0.099448 0.032178
0.055500 0.099422 0.031796
0.056000 0.099397 0.031415
0.056500 0.099380 0.031161
0.057000 0.099355 0.030779
0.057500 0.099330 0.030397
0.058000 0.099305 0.030016
0.058500 0.099263 0.029380
0.059000 0.099204 0.028490
0.059500 0.099153 0.027726
0.060000 0.099094 0.026836
0.060500 0.099044 0.026073
0.061000 0.098993 0.025310
0.061500 0.098943 0.024547
0.062000 0.098901 0.023911
0.062500 0.098842 0.023020
0.063000 0.098749 0.021621
0.063500 0.098682 0.020604
0.064000 0.098513 0.018060
0.064500 0.098278 0.014498
0.065000 0.098244 0.013990
0.065500 0.098185 0.013099
0.032750 0.101268 0.049282
0.033250 0.101250 0.048923
0.033750 0.101231 0.048564
0.034250 0.101212 0.048205
0.034750 0.101187 0.047823
0.035250 0.101171 0.047569
0.035750 0.101145 0.047187
0.036250 0.101112 0.046678
0.036750 0.101004 0.045025
0.037250 0.100987 0.044771
0.037750 0.100979 0.044643
0.038250 0.100945 0.044135
0.038750 0.100929 0.043880
0.039250 0.100904 0.043499
0.039750 0.100879 0.043117
0.040250 0.100837 0.042481
0.040750 0.100804 0.041973
0.041250 0.100779 0.041591
0.041750 0.100754 0.041209
0.042250 0.100720 0.040701
0.042750 0.100679 0.040065
0.043250 0.100637 0.039429
0.043750 0.100603 0.038920
0.044250 0.100562 0.038284
0.044750 0.100537 0.037902
0.045250 0.100503 0.037394
0.045750 0.100478 0.037012
0.046250 0.100453 0.036631
0.046750 0.100428 0.036249
0.047250 0.100395 0.035740
0.047750 0.100370 0.035359
0.048250 0.100328 0.034723
0.048750 0.100303 0.034341
0.049250 0.100287 0.034087
0.049750 0.100262 0.033705
0.050250 0.100245 0.033451
0.050750 0.100237 0.033324
0.051250 0.100228 0.033197
0.051750 0.100220 0.033070
0.052250 0.100203 0.032815
0.052750 0.100195 0.032688
0.053250 0.100187 0.032561
0.053750 0.100178 0.032433
0.054250 0.100162 0.032179
0.054750 0.100137 0.031798
0.055250 0.100128 0.031670
0.055750 0.100103 0.031289
0.056250 0.100078 0.030907
0.056750 0.100061 0.030653
0.057250 0.100036 0.030271
0.057750 0.100011 0.029890
0.058250 0.099978 0.029381
0.058750 0.099928 0.028618
0.059250 0.099886 0.027982
0.059750 0.099811 0.026837
0.060250 0.099761 0.026074
0.060750 0.099720 0.025438
0.061250 0.099661 0.024548
0.061750 0.099611 0.023785
0.062250 0.099544 0.022767
0.062750 0.099453 0.021368
0.063250 0.099253 0.018316
0.063750 0.099228 0.017934
0.064250 0.099011 0.014627
0.064750 0.098944 0.013610
0.065250 0.098886 0.012720
0.032500 0.101978 0.049402
0.033000 0.101959 0.049043
0.033500 0.101941 0.048684
0.034000 0.101922 0.048325
0.034500 0.101899 0.047951
0.035000 0.101891 0.047823
0.035500 0.101858 0.047315
0.036000 0.101767 0.045916
0.036500 0.101726 0.045280
0.037000 0.101710 0.045026
0.037500 0.101693 0.044771
0.038000 0.101676 0.044517
0.038500 0.101652 0.044135
0.039000 0.101627 0.043754
0.039500 0.101577 0.042991
0.040000 0.101536 0.042355
0.040500 0.101503 0.041846
0.041000 0.101487 0.041592
0.041500 0.101445 0.040956
0.042000 0.101404 0.040320
0.042500 0.101379 0.039938
0.043000 0.101338 0.039302
0.043500 0.101313 0.038921
0.044000 0.101288 0.038539
0.044500 0.101255 0.038031
0.045000 0.101222 0.037522
0.045500 0.101189 0.037013
0.046000 0.101164 0.036632
0.046500 0.101148 0.036377
0.047000 0.101107 0.035741
0.047500 0.101090 0.035487
0.048000 0.101049 0.034851
0.048500 0.101016 0.034342
0.049000 0.100991 0.033961
0.049500 0.100958 0.033452
0.050000 0.100941 0.033198
0.050500 0.100925 0.032943
0.051000 0.100917 0.032816
0.051500 0.100900 0.032562
0.052000 0.100900 0.032562
0.052500 0.100892 0.032435
0.053000 0.100884 0.032307
0.053500 0.100867 0.032053
0.054000 0.100851 0.031799
0.054500 0.100834 0.031544
0.055000 0.100818 0.031290
0.055500 0.100793 0.030908
0.056000 0.100776 0.030654
0.056500 0.100760 0.030400
0.057000 0.100735 0.030018
0.057500 0.100718 0.029764
0.058000 0.100685 0.029255
0.058500 0.100636 0.028492
0.059000 0.100586 0.027729
0.059500 0.100528 0.026839
0.060000 0.100479 0.026076
0.060500 0.100429 0.025313
0.061000 0.100372 0.024422
0.061500 0.100314 0.023532
0.062000 0.100231 0.022260
0.062500 0.100025 0.019081
0.063000 0.099983 0.018445
0.063500 0.099942 0.017809
0.064000 0.099727 0.014502
0.064500 0.099620 0.012849
0.065000 0.099603 0.012594
0.032250 0.102681 0.049403
0.032750 0.102669 0.049163
0.033250 0.102644 0.048684
0.033750 0.102626 0.048325
0.034250 0.102612 0.048078
0.034750 0.102595 0.047824
0.035250 0.102473 0.045916
0.035750 0.102456 0.045662
0.036250 0.102440 0.045408
0.036750 0.102432 0.045280
0.037250 0.102415 0.045026
0.037750 0.102399 0.044772
0.038250 0.102366 0.044263
0.038750 0.102334 0.043754
0.039250 0.102276 0.042864
0.039750 0.102252 0.042482
0.040250 0.102227 0.042101
0.040750 0.102194 0.041592
0.041250 0.102162 0.041084
0.041750 0.102121 0.040448
0.042250 0.102088 0.039939
0.042750 0.102064 0.039558
0.043250 0.102039 0.039176
0.043750 0.102015 0.038794
0.044250 0.101990 0.038413
0.044750 0.101957 0.037904
0.045250 0.101925 0.037395
0.045750 0.101892 0.036887
0.046250 0.101867 0.036505
0.046750 0.101843 0.036124
0.047250 0.101810 0.035615
0.047750 0.101777 0.035106
0.048250 0.101728 0.034343
0.048750 0.101687 0.033707
0.049250 0.101646 0.033071
0.049750 0.101630 0.032817
0.050250 0.101614 0.032563
0.050750 0.101597 0.032308
0.051250 0.101589 0.032181
0.051750 0.101581 0.032054
0.052250 0.101573 0.031927
0.052750 0.101565 0.031800
0.053250 0.101548 0.031545
0.053750 0.101532 0.031291
0.054250 0.101507 0.030910
0.054750 0.101499 0.030782
0.055250 0.101475 0.030401
0.055750 0.101466 0.030274
0.056250 0.101442 0.029892
0.056750 0.101426 0.029638
0.057250 0.101401 0.029256
0.057750 0.101368 0.028748
0.058250 0.101319 0.027984
0.058750 0.101278 0.027349
0.059250 0.101237 0.026713
0.059750 0.101180 0.025823
0.060250 0.101123 0.024932
0.060750 0.101058 0.023915
0.061250 0.100992 0.022898
0.061750 0.100902 0.021499
0.062250 0.100763 0.019337
0.062750 0.100698 0.018319
0.063250 0.100649 0.017556
0.063750 0.100403 0.013741
0.064250 0.100330 0.012596
0.064750 0.100313 0.012342
0.032000 0.103384 0.049403
0.032500 0.103366 0.049044
0.033000 0.103354 0.048805
0.033500 0.103330 0.048326
0.034000 0.103316 0.048079
0.034500 0.103307 0.047952
0.035000 0.103186 0.046044
0.035500 0.103170 0.045790
0.036000 0.103162 0.045662
0.036500 0.103145 0.045408
0.037000 0.103129 0.045154
0.037500 0.103113 0.044899
0.038000 0.103097 0.044645
0.038500 0.103032 0.043628
0.039000 0.102991 0.042992
0.039500 0.102975 0.042737
0.040000 0.102951 0.042356
0.040500 0.102919 0.041847
0.041000 0.102886 0.041339
0.041500 0.102854 0.040830
0.042000 0.102821 0.040321
0.042500 0.102797 0.039940
0.043000 0.102773 0.039558
0.043500 0.102749 0.039177
0.044000 0.102716 0.038668
0.044500 0.102692 0.038287
0.045000 0.102659 0.037778
0.045500 0.102627 0.037269
0.046000 0.102603 0.036888
0.046500 0.102570 0.036379
0.047000 0.102538 0.035870
0.047500 0.102489 0.035107
0.048000 0.102433 0.034217
0.048500 0.102384 0.033454
0.049000 0.102343 0.032818
0.049500 0.102319 0.032437
0.050000 0.102303 0.032182
0.050500 0.102287 0.031928
0.051000 0.102271 0.031674
0.051500 0.102271 0.031674
0.052000 0.102254 0.031419
0.052500 0.102238 0.031165
0.053000 0.102214 0.030783
0.053500 0.102198 0.030529
0.054000 0.102182 0.030275
0.054500 0.102173 0.030148
0.055000 0.102157 0.029893
0.055500 0.102141 0.029639
0.056000 0.102125 0.029385
0.056500 0.102109 0.029130
0.057000 0.102076 0.028622
0.057500 0.102036 0.027986
0.058000 0.102003 0.027477
0.058500 0.101955 0.026714
0.059000 0.101922 0.026205
0.059500 0.101866 0.025315
0.060000 0.101793 0.024171
0.060500 0.101744 0.023408
0.061000 0.101687 0.022517
0.061500 0.101525 0.019974
0.062000 0.101477 0.019211
0.062500 0.101396 0.017939
0.063000 0.101363 0.017431
0.063500 0.101104 0.013361
0.064000 0.101072 0.012853
0.064500 0.100740 0.007639
0.031750 0.104087 0.049404
0.032250 0.104069 0.049044
0.032750 0.104051 0.048685
0.033250 0.104033 0.048326
0.033750 0.104027 0.048206
0.034250 0.103995 0.047698
0.034750 0.103891 0.046044
0.035250 0.103883 0.045917
0.035750 0.103867 0.045663
0.036250 0.103859 0.045536
0.036750 0.103843 0.045281
0.037250 0.103835 0.045154
0.037750 0.103787 0.044391
0.038250 0.103739 0.043628
0.038750 0.103723 0.043374
0.039250 0.103699 0.042993
0.039750 0.103675 0.042611
0.040250 0.103642 0.042102
0.040750 0.103610 0.041594
0.041250 0.103578 0.041085
0.041750 0.103554 0.040703
0.042250 0.103530 0.040322
0.042750 0.103514 0.040068
0.043250 0.103482 0.039559
0.043750 0.103442 0.038923
0.044250 0.103426 0.038669
0.044750 0.103394 0.038160
0.045250 0.103370 0.037779
0.045750 0.103346 0.037397
0.046250 0.103306 0.036761
0.046750 0.103265 0.036126
0.047250 0.103209 0.035235
0.047750 0.103145 0.034218
0.048250 0.103065 0.032946
0.048750 0.103041 0.032565
0.049250 0.103009 0.032056
0.049750 0.102977 0.031548
0.050250 0.102969 0.031420
0.050750 0.102945 0.031039
0.051250 0.102937 0.030912
0.051750 0.102921 0.030658
0.052250 0.102897 0.030276
0.052750 0.102888 0.030149
0.053250 0.102864 0.029767
0.053750 0.102856 0.029640
0.054250 0.102848 0.029513
0.054750 0.102832 0.029259
0.055250 0.102816 0.029004
0.055750 0.102792 0.028623
0.056250 0.102768 0.028241
0.056750 0.102736 0.027733
0.057250 0.102696 0.027097
0.057750 0.102680 0.026843
0.058250 0.102624 0.025952
0.058750 0.102592 0.025444
0.059250 0.102528 0.024427
0.059750 0.102487 0.023791
0.060250 0.102439 0.023028
0.060750 0.102367 0.021883
0.061250 0.102239 0.019849
0.061750 0.102151 0.018450
0.062250 0.102111 0.017814
0.062750 0.102078 0.017305
0.063250 0.101830 0.013363
0.063750 0.101493 0.008022
0.064250 0.101477 0.007768
0.031000 0.104813 0.049883
0.031500 0.104796 0.049524
0.032000 0.104772 0.049045
0.032500 0.104755 0.048685
0.033000 0.104737 0.048326
0.033500 0.104723 0.048079
0.034000 0.104612 0.046299
0.034500 0.104596 0.046045
0.035000 0.104588 0.045918
0.035500 0.104580 0.045791
0.036000 0.104572 0.045663
0.036500 0.104557 0.045409
0.037000 0.104541 0.045155
0.037500 0.104485 0.044265
0.038000 0.104453 0.043756
0.038500 0.104437 0.043502
0.039000 0.104422 0.043247
0.039500 0.104382 0.042612
0.040000 0.104350 0.042103
0.040500 0.104334 0.041849
0.041000 0.104310 0.041467
0.041500 0.104287 0.041086
0.042000 0.104263 0.040704
0.042500 0.104247 0.040450
0.043000 0.104215 0.039941
0.043500 0.104175 0.039306
0.044000 0.104144 0.038797
0.044500 0.104120 0.038415
0.045000 0.104088 0.037907
0.045500 0.104072 0.037652
0.046000 0.104032 0.037017
0.046500 0.103993 0.036381
0.047000 0.103945 0.035618
0.047500 0.103826 0.033710
0.048000 0.103770 0.032820
0.048500 0.103731 0.032185
0.049000 0.103715 0.031930
0.049500 0.103675 0.031295
0.050000 0.103651 0.030913
0.050500 0.103612 0.030277
0.051000 0.103596 0.030023
0.051500 0.103588 0.029896
0.052000 0.103572 0.029641
0.052500 0.103556 0.029387
0.053000 0.103548 0.029260
0.053500 0.103540 0.029133
0.054000 0.103524 0.028878
0.054500 0.103516 0.028751
0.055000 0.103500 0.028497
0.055500 0.103477 0.028116
0.056000 0.103453 0.027734
0.056500 0.103421 0.027225
0.057000 0.103381 0.026590
0.057500 0.103349 0.026081
0.058000 0.103302 0.025318
0.058500 0.103262 0.024682
0.059000 0.103222 0.024046
0.059500 0.103183 0.023411
0.060000 0.103127 0.022520
0.060500 0.103024 0.020867
0.061000 0.102937 0.019469
0.061500 0.102857 0.018197
0.062000 0.102833 0.017816
0.062500 0.102547 0.013238
0.063000 0.102524 0.012856
0.063500 0.102262 0.008660
0.064000 0.102190 0.007516
0.030750 0.105510 0.049764
0.031250 0.105487 0.049285
0.031750 0.105470 0.048925
0.032250 0.105452 0.048566
0.032750 0.105435 0.048207
0.033250 0.105427 0.048080
0.033750 0.105325 0.046427
0.034250 0.105309 0.046173
0.034750 0.105301 0.046045
0.035250 0.105286 0.045791
0.035750 0.105278 0.045664
0.036250 0.105262 0.045410
0.036750 0.105254 0.045283
0.037250 0.105207 0.044519
0.037750 0.105168 0.043884
0.038250 0.105152 0.043630
0.038750 0.105128 0.043248
0.039250 0.105097 0.042739
0.039750 0.105066 0.042231
0.040250 0.105042 0.041849
0.040750 0.105026 0.041595
0.041250 0.105010 0.041341
0.041750 0.104995 0.041086
0.042250 0.104971 0.040705
0.042750 0.104948 0.040323
0.043250 0.104900 0.039561
0.043750 0.104869 0.039052
0.044250 0.104845 0.038670
0.044750 0.104814 0.038162
0.045250 0.104790 0.037780
0.045750 0.104767 0.037399
0.046250 0.104720 0.036636
0.046750 0.104617 0.034983
0.047250 0.104562 0.034093
0.047750 0.104507 0.033203
0.048250 0.104460 0.032440
0.048750 0.104413 0.031677
0.049250 0.104382 0.031168
0.049750 0.104319 0.030151
0.050250 0.104303 0.029897
0.050750 0.104272 0.029388
0.051250 0.104256 0.029134
0.051750 0.104248 0.029007
0.052250 0.104240 0.028880
0.052750 0.104224 0.028625
0.053250 0.104224 0.028625
0.053750 0.104209 0.028371
0.054250 0.104201 0.028244
0.054750 0.104185 0.027990
0.055250 0.104169 0.027735
0.055750 0.104138 0.027227
0.056250 0.104099 0.026591
0.056750 0.104044 0.025701
0.057250 0.104012 0.025192
0.057750 0.103965 0.024429
0.058250 0.103933 0.023921
0.058750 0.103894 0.023285
0.059250 0.103847 0.022522
0.059750 0.103784 0.021505
0.060250 0.103705 0.020233
0.060750 0.103619 0.018835
0.061250 0.103580 0.018199
0.061750 0.103305 0.013748
0.062250 0.103281 0.013367
0.062750 0.103029 0.009298
0.063250 0.102998 0.008789
0.063750 0.102896 0.007136
0.030500 0.106207 0.049644
0.031000 0.106190 0.049285
0.031500 0.106167 0.048806
0.032000 0.106150 0.048447
0.032500 0.106139 0.048207
0.033000 0.106123 0.047953
0.033500 0.106038 0.046554
0.034000 0.106014 0.046173
0.034500 0.106007 0.046046
0.035000 0.105991 0.045792
0.035500 0.105983 0.045664
0.036000 0.105968 0.045410
0.036500 0.105960 0.045283
0.037000 0.105921 0.044647
0.037500 0.105882 0.044012
0.038000 0.105866 0.043757
0.038500 0.105851 0.043503
0.039000 0.105812 0.042867
0.039500 0.105781 0.042359
0.040000 0.105765 0.042104
0.040500 0.105750 0.041850
0.041000 0.105734 0.041596
0.041500 0.105711 0.041214
0.042000 0.105695 0.040960
0.042500 0.105672 0.040579
0.043000 0.105625 0.039816
0.043500 0.105594 0.039307
0.044000 0.105571 0.038926
0.044500 0.105540 0.038417
0.045000 0.105508 0.037908
0.045500 0.105477 0.037400
0.046000 0.105423 0.036510
0.046500 0.105361 0.035493
0.047000 0.105298 0.034475
0.047500 0.105252 0.033712
0.048000 0.105197 0.032822
0.048500 0.105143 0.031932
0.049000 0.105073 0.030788
0.049500 0.105018 0.029898
0.050000 0.104995 0.029517
0.050500 0.104972 0.029135
0.051000 0.104940 0.028627
0.051500 0.104925 0.028372
0.052000 0.104917 0.028245
0.052500 0.104909 0.028118
0.053000 0.104901 0.027991
0.053500 0.104886 0.027737
0.054000 0.104878 0.027609
0.054500 0.104870 0.027482
0.055000 0.104831 0.026846
0.055500 0.104785 0.026084
0.056000 0.104754 0.025575
0.056500 0.104722 0.025066
0.057000 0.104684 0.024431
0.057500 0.104652 0.023922
0.058000 0.104614 0.023286
0.058500 0.104575 0.022651
0.059000 0.104536 0.022015
0.059500 0.104466 0.020871
0.060000 0.104411 0.019981
0.060500 0.104108 0.015022
0.061000 0.104084 0.014640
0.061500 0.104053 0.014132
0.062000 0.103952 0.012479
0.062500 0.103905 0.011716
0.063000 0.103758 0.009300
0.063500 0.103633 0.007266
0.029750 0.106916 0.049764
0.030250 0.106899 0.049405
0.030750 0.106888 0.049166
0.031250 0.106865 0.048687
0.031750 0.106843 0.048208
0.032250 0.106827 0.047954
0.032750 0.106812 0.047699
0.033250 0.106781 0.047191
0.033750 0.106719 0.046173
0.034250 0.106712 0.046046
0.034750 0.106696 0.045792
0.035250 0.106681 0.045538
0.035750 0.106673 0.045411
0.036250 0.106665 0.045283
0.036750 0.106627 0.044648
0.037250 0.106596 0.044139
0.037750 0.106581 0.043885
0.038250 0.106558 0.043504
0.038750 0.106527 0.042995
0.039250 0.106488 0.042359
0.039750 0.106481 0.042232
0.040250 0.106465 0.041978
0.040750 0.106450 0.041723
0.041250 0.106427 0.041342
0.041750 0.106404 0.040961
0.042250 0.106380 0.040579
0.042750 0.106350 0.040071
0.043250 0.106311 0.039435
0.043750 0.106288 0.039053
0.044250 0.106250 0.038418
0.044750 0.106219 0.037909
0.045250 0.106188 0.037401
0.045750 0.106134 0.036511
0.046250 0.106088 0.035748
0.046750 0.106042 0.034985
0.047250 0.105972 0.033841
0.047750 0.105926 0.033078
0.048250 0.105864 0.032061
0.048750 0.105810 0.031171
0.049250 0.105741 0.030026
0.049750 0.105703 0.029391
0.050250 0.105664 0.028755
0.050750 0.105641 0.028373
0.051250 0.105610 0.027865
0.051750 0.105595 0.027611
0.052250 0.105579 0.027356
0.052750 0.105572 0.027229
0.053250 0.105556 0.026975
0.053750 0.105533 0.026593
0.054250 0.105502 0.026085
0.054750 0.105479 0.025704
0.055250 0.105456 0.025322
0.055750 0.105433 0.024941
0.056250 0.105410 0.024559
0.056750 0.105364 0.023796
0.057250 0.105341 0.023415
0.057750 0.105294 0.022652
0.058250 0.105264 0.022143
0.058750 0.105210 0.021254
0.059250 0.105140 0.020109
0.059750 0.104902 0.016168
0.060250 0.104863 0.015532
0.060750 0.104840 0.015151
0.061250 0.104801 0.014515
0.061750 0.104694 0.012735
0.062250 0.104663 0.012226
0.062750 0.104509 0.009684
0.063250 0.104362 0.007268
0.029000 0.107619 0.049765
0.029500 0.107607 0.049525
0.030000 0.107596 0.049286
0.030500 0.107580 0.048926
0.031000 0.107557 0.048448
