-0.021250 0.040815 0.060775
-0.022000 0.040155 0.061137
-0.022000 0.041463 0.060292
-0.021750 0.042111 0.059810
-0.021250 0.043383 0.058605
-0.021750 0.044644 0.057281
-0.022000 0.044020 0.058003
-0.021250 0.045858 0.055475
-0.021500 0.045257 0.056438
-0.022000 0.046485 0.054753
-0.021500 0.047630 0.052227
-0.021750 0.047076 0.053670
-0.022000 0.048853 0.050422
-0.021250 0.048235 0.051264
-0.021250 0.049545 0.050299
-0.021750 0.050856 0.049335
-0.022000 0.051524 0.048972
-0.021500 0.051548 0.049212
-0.021500 0.052909 0.048727
-0.021250 0.052241 0.049090
-0.021750 0.053573 0.048369
-0.021500 0.054273 0.048370
-0.022000 0.055649 0.048133
-0.021250 0.056406 0.048734
-0.022000 0.057071 0.048376
-0.021250 0.057895 0.049697
-0.022000 0.058583 0.049579
-0.021500 0.059648 0.060983
-0.021750 0.060505 0.062784
-0.021250 0.060539 0.063144
-0.021500 0.061328 0.064225
-0.021250 0.062137 0.065546
-0.022000 0.062955 0.066987
-0.021500 0.062966 0.067107
-0.021250 0.063772 0.068427
-0.022000 0.064511 0.069028
-0.021250 0.065271 0.069868
-0.022000 0.065987 0.070228
-0.021750 0.066724 0.070829
-0.021250 0.066745 0.071069
-0.022000 0.067461 0.071429
-0.021250 0.068247 0.072629
-0.022000 0.068981 0.073229
-0.021500 0.069012 0.073589
-0.021250 0.069796 0.074788
-0.022000 0.070527 0.075388
-0.021250 0.071308 0.076588
-0.022000 0.072008 0.076828
-0.021750 0.072757 0.077667
-0.022000 0.073466 0.078027
-0.021250 0.074222 0.078986
-0.022000 0.074910 0.079106
-0.021250 0.075626 0.079586
-0.022000 0.076323 0.079825
-0.021500 0.076342 0.080065
-0.021750 0.077066 0.080664
-0.021500 0.077809 0.081503
-0.021250 0.078540 0.082222
-0.022000 0.079244 0.082582
-0.021250 0.079974 0.083301
-0.021500 0.080676 0.083660
-0.021250 0.081378 0.084019
-0.021500 0.082071 0.084259
-0.022000 0.083438 0.084497
-0.021500 0.084812 0.084856
-0.021750 0.085495 0.084975
-0.021250 0.085504 0.085095
-0.022000 0.086162 0.084855
-0.021250 0.086852 0.085094
-0.022000 0.087519 0.084974
-0.021500 0.087527 0.085094
-0.021500 0.088883 0.085213
-0.021250 0.089558 0.085212
-0.021750 0.090912 0.085211
-0.022000 0.091599 0.085331
-0.021750 0.092286 0.085450
-0.021250 0.093652 0.085570
-0.021500 0.094339 0.085689
-0.021750 0.095018 0.085689
-0.021250 0.096377 0.085688
-0.021750 0.097721 0.085448
-0.022000 0.098394 0.085328
-0.022000 0.099733 0.084968
-0.021750 0.099067 0.085207
-0.021250 0.100406 0.084847
-0.021750 0.101747 0.084487
-0.021500 0.102420 0.084367
-0.022000 0.103756 0.083888
-0.021250 0.103088 0.084128
-0.021250 0.104430 0.083768
-0.021500 0.105099 0.083528
-0.022000 0.106437 0.083048
-0.021500 0.107782 0.082689
-0.021250 0.108457 0.082569
-0.021500 0.109139 0.082568
-0.022000 0.110512 0.082807
-0.021500 0.111922 0.083884
-0.021250 0.112943 0.092934
-0.021500 0.113650 0.093952
-0.021750 0.114348 0.094745
-0.021250 0.114366 0.095311
-0.021500 0.115053 0.095763
-0.021250 0.115752 0.096669
-0.021500 0.116429 0.096895
-0.021750 0.117107 0.097122
-0.021750 0.118467 0.097801
-0.021250 0.118479 0.098254
-0.022000 0.119137 0.097802
-0.021750 0.119816 0.098142
-0.022000 0.120483 0.098028
-0.022000 0.121821 0.097915
-0.021750 0.121159 0.098255
-0.021250 0.122506 0.098595
-0.021750 0.123831 0.097916
-0.021250 0.123838 0.098256
-0.021500 0.124501 0.097916
-0.022000 0.125848 0.096896
-0.021750 0.125176 0.097462
-0.021750 0.126532 0.096896
-0.021250 0.126538 0.097236
-0.021750 0.127885 0.096102
-0.022000 0.128560 0.095536
-0.022000 0.129918 0.094856
-0.021750 0.129243 0.095422
-0.021750 0.130600 0.094629
-0.021250 0.130607 0.095082
-0.021750 0.131959 0.093836
-0.021500 0.131283 0.094516
-0.022000 0.132637 0.093270
-0.021750 0.133324 0.093383
-0.022000 0.134005 0.092930
-0.021750 0.134695 0.093269
-0.022000 0.135376 0.092816
-0.021500 0.135383 0.093495
-0.022000 0.136748 0.092816
-0.021750 0.136064 0.093042
-0.021250 0.137439 0.093382
-0.022000 0.138119 0.092702
-0.021500 0.138123 0.093155
-0.022000 0.139490 0.092476
-0.021750 0.140177 0.092589
-0.021250 0.141548 0.092475
-0.021750 0.142917 0.091569
-0.021500 0.142233 0.092022
-0.022000 0.143603 0.091117
-0.021500 0.144976 0.090777
-0.021250 0.144290 0.091343
-0.021750 0.145663 0.090324
-0.022000 0.146350 0.089871
-0.021500 0.146350 0.090098
-0.021500 0.147726 0.089305
-0.021250 0.148414 0.088966
-0.021250 0.149792 0.087827
-0.022000 0.149104 0.088287
-0.022000 0.150473 0.087108
-0.022000 0.151837 0.085550
-0.021250 0.151155 0.086389
-0.021250 0.152519 0.084591
-0.021250 0.153882 0.082314
-0.022000 0.153199 0.083393
-0.022000 0.154563 0.080756
-0.021500 0.155931 0.077879
-0.021250 0.155248 0.079557
-0.021250 0.156613 0.075721
-0.021750 0.157884 0.049347
-0.021500 0.157177 0.050068
-0.021500 0.158592 0.048627
-0.022000 0.159986 0.045478
-0.021750 0.159298 0.047384
-0.021250 0.159309 0.048018
-0.021750 0.160694 0.044588
-0.021250 0.160711 0.045603
-0.021500 0.160004 0.046493
-0.021500 0.161399 0.043444
-0.021750 0.162083 0.040904
-0.021250 0.162109 0.042554
-0.021250 0.163494 0.038108
-0.021000 0.034619 0.061633
-0.020750 0.035371 0.062111
-0.020500 0.036082 0.062229
-0.021000 0.037466 0.062105
-0.020500 0.038810 0.061621
-0.020250 0.039470 0.061259
-0.020250 0.040790 0.060535
-0.021000 0.040142 0.061017
-0.021000 0.041463 0.060292
-0.020750 0.042098 0.059690
-0.020500 0.043994 0.057763
-0.020750 0.043370 0.058486
-0.020750 0.044619 0.057041
-0.020250 0.045833 0.055235
-0.021000 0.045245 0.056318
-0.020500 0.046448 0.054393
-0.021000 0.047630 0.052227
-0.020750 0.047038 0.053310
-0.021000 0.048890 0.050782
-0.020750 0.048247 0.051384
-0.020250 0.049581 0.050660
-0.020750 0.050916 0.049935
-0.020500 0.050236 0.050177
-0.020500 0.051596 0.049693
-0.021000 0.052933 0.048968
-0.020750 0.052264 0.049330
-0.020750 0.053632 0.048969
-0.020250 0.053656 0.049209
-0.021000 0.054308 0.048730
-0.020750 0.055019 0.048852
-0.020250 0.055042 0.049092
-0.020750 0.056452 0.049215
-0.020500 0.057185 0.049576
-0.021000 0.059704 0.061583
-0.020750 0.060550 0.063264
-0.021000 0.061339 0.064345
-0.020750 0.062170 0.065906
-0.020250 0.062192 0.066146
-0.021000 0.062988 0.067347
-0.020500 0.063010 0.067587
-0.020250 0.063793 0.068667
-0.021000 0.064533 0.069268
-0.020750 0.065282 0.069988
-0.020250 0.065292 0.070108
-0.021000 0.066019 0.070588
-0.020750 0.066766 0.071308
-0.021000 0.067492 0.071789
-0.020500 0.067512 0.072029
-0.020750 0.068258 0.072749
-0.020250 0.068299 0.073229
-0.021000 0.069053 0.074068
-0.020250 0.069846 0.075388
-0.021000 0.070568 0.075868
-0.020500 0.070598 0.076228
-0.020750 0.071328 0.076828
-0.020250 0.071348 0.077068
-0.020500 0.072068 0.077547
-0.020750 0.072796 0.078147
-0.021000 0.073504 0.078507
-0.020500 0.074948 0.079586
-0.020750 0.075645 0.079825
-0.020250 0.075664 0.080065
-0.021000 0.076361 0.080305
-0.020500 0.077827 0.081743
-0.020250 0.078559 0.082462
-0.021000 0.079271 0.082941
-0.020750 0.079992 0.083541
-0.021000 0.080685 0.083780
-0.020750 0.081387 0.084139
-0.020500 0.082088 0.084498
-0.021000 0.083455 0.084737
-0.021000 0.084821 0.084976
-0.020250 0.084155 0.085096
-0.020750 0.085504 0.085095
-0.020750 0.086860 0.085214
-0.021000 0.087535 0.085214
-0.020500 0.088891 0.085333
-0.020750 0.089566 0.085332
-0.020500 0.090240 0.085332
-0.021000 0.091599 0.085331
-0.020500 0.092973 0.085570
-0.020750 0.093652 0.085570
-0.021000 0.094339 0.085689
-0.020500 0.095697 0.085688
-0.020750 0.096377 0.085688
-0.020500 0.097049 0.085568
-0.021000 0.098394 0.085328
-0.020750 0.099067 0.085207
-0.020750 0.100406 0.084847
-0.020750 0.101747 0.084487
-0.021000 0.102420 0.084367
-0.020750 0.103088 0.084128
-0.020750 0.104430 0.083768
-0.020500 0.105099 0.083528
-0.021000 0.106443 0.083168
-0.021000 0.107787 0.082808
-0.020250 0.107118 0.083048
-0.020250 0.108469 0.082808
-0.020500 0.109150 0.082808
-0.020250 0.109842 0.083047
-0.021000 0.110523 0.083047
-0.020750 0.111231 0.083645
-0.021000 0.112207 0.091123
-0.020500 0.112250 0.092368
-0.020750 0.112969 0.093726
-0.020250 0.112992 0.094405
-0.021000 0.113672 0.094631
-0.020500 0.113691 0.095197
-0.020750 0.114381 0.095763
-0.020250 0.114392 0.096103
-0.020500 0.115081 0.096669
-0.020250 0.115776 0.097461
-0.021000 0.116443 0.097348
-0.020750 0.117130 0.097915
-0.020500 0.117816 0.098481
-0.020750 0.118488 0.098594
-0.020500 0.119164 0.098821
-0.020250 0.119839 0.099047
-0.021000 0.120503 0.098821
-0.020500 0.120509 0.099048
-0.021000 0.121842 0.098822
-0.020250 0.121183 0.099274
-0.020750 0.122514 0.098935
-0.020250 0.122522 0.099275
-0.020500 0.123183 0.098935
-0.021000 0.124508 0.098256
-0.021000 0.125865 0.097802
-0.020750 0.125191 0.098255
-0.020750 0.126546 0.097689
-0.020250 0.126553 0.098028
-0.020750 0.127901 0.097008
-0.021000 0.128575 0.096442
-0.021000 0.129931 0.095649
-0.020750 0.129255 0.096215
-0.020250 0.130620 0.095988
-0.020750 0.131973 0.094855
-0.020500 0.131296 0.095422
-0.020500 0.132658 0.094855
-0.020750 0.133338 0.094515
-0.020750 0.134706 0.094288
-0.021000 0.135388 0.093948
-0.020500 0.135392 0.094401
-0.021000 0.136756 0.093722
-0.020750 0.136074 0.094062
-0.020750 0.137443 0.093835
-0.020250 0.137446 0.094174
-0.020500 0.138129 0.093948
-0.020500 0.139497 0.093495
-0.021000 0.140865 0.092928
-0.020750 0.140181 0.093268
-0.020750 0.141550 0.092815
-0.020250 0.141551 0.093041
-0.020750 0.142920 0.092249
-0.021000 0.143605 0.091683
-0.020500 0.143606 0.092022
-0.020750 0.144291 0.091456
-0.020750 0.145663 0.090777
-0.020250 0.145664 0.091003
-0.021000 0.146350 0.090324
-0.020500 0.147726 0.089531
-0.020250 0.147038 0.090097
-0.020750 0.148414 0.088966
-0.020250 0.148414 0.089192
-0.020750 0.149793 0.087947
-0.020500 0.149103 0.088626
-0.020500 0.150476 0.087348
-0.021000 0.151838 0.085670
-0.020750 0.151155 0.086389
-0.020750 0.152521 0.084831
-0.020750 0.153884 0.082554
-0.021000 0.153201 0.083633
-0.021000 0.154564 0.080876
-0.020500 0.155930 0.077639
-0.021000 0.155933 0.078118
-0.020250 0.155249 0.079677
-0.020750 0.156613 0.075601
-0.020750 0.157888 0.050186
-0.020500 0.158595 0.049466
-0.020250 0.159313 0.048745
-0.020750 0.160722 0.046238
-0.020500 0.160024 0.047636
-0.021000 0.161422 0.044840
-0.020500 0.161430 0.045347
-0.021000 0.162824 0.041917
-0.020500 0.162840 0.042933
-0.020750 0.162129 0.043823
-0.020250 0.162139 0.044457
-0.020750 0.163537 0.041027
-0.020250 0.163551 0.042042
-0.021000 0.164220 0.037980
-0.020250 0.164964 0.039247
-0.020500 0.164250 0.040137
-0.020000 0.034632 0.061753
-0.019750 0.035384 0.062231
-0.019500 0.036082 0.062229
-0.020000 0.037452 0.061985
-0.019750 0.038125 0.061743
-0.019750 0.039470 0.061259
-0.019750 0.040790 0.060535
-0.019500 0.041424 0.059932
-0.020000 0.041450 0.060172
-0.019500 0.042721 0.058968
-0.019750 0.042085 0.059570
-0.020000 0.043982 0.057643
-0.019750 0.043357 0.058365
-0.019750 0.044594 0.056800
-0.019750 0.045833 0.055235
-0.019500 0.045220 0.056078
-0.020000 0.046435 0.054273
-0.020000 0.047630 0.052227
-0.019750 0.047026 0.053190
-0.019750 0.048260 0.051505
-0.019750 0.049593 0.050780
-0.019500 0.050273 0.050537
-0.020000 0.051620 0.049933
-0.019500 0.051644 0.050173
-0.019750 0.052312 0.049811
-0.019250 0.052336 0.050051
-0.019250 0.053703 0.049689
-0.019500 0.054390 0.049571
-0.019500 0.055788 0.049573
-0.019250 0.056521 0.049935
-0.020000 0.057197 0.049696
-0.019750 0.057929 0.050058
-0.020000 0.059726 0.061823
-0.019750 0.060605 0.063864
-0.020000 0.061383 0.064825
-0.019500 0.061405 0.065065
-0.019750 0.062214 0.066386
-0.019500 0.063031 0.067827
-0.019750 0.063815 0.068907
-0.019500 0.064565 0.069628
-0.019750 0.065303 0.070228
-0.019500 0.066051 0.070948
-0.019750 0.066787 0.071549
-0.020000 0.067533 0.072269
-0.019750 0.068319 0.073469
-0.020000 0.069094 0.074548
-0.019250 0.069887 0.075868
-0.019500 0.070628 0.076588
-0.019250 0.071378 0.077427
-0.020000 0.072087 0.077787
-0.019750 0.072826 0.078507
-0.020000 0.073534 0.078866
-0.019500 0.073563 0.079226
-0.019500 0.074977 0.079946
-0.019750 0.075683 0.080305
-0.019500 0.076408 0.080904
-0.019750 0.077122 0.081384
-0.019500 0.077855 0.082103
-0.019750 0.078577 0.082702
-0.020000 0.079289 0.083181
-0.019750 0.080001 0.083660
-0.020000 0.080703 0.084020
-0.019750 0.081404 0.084379
-0.019500 0.082097 0.084618
-0.020000 0.083472 0.084977
-0.019750 0.084163 0.085216
-0.019750 0.085520 0.085335
-0.019750 0.086877 0.085454
-0.020000 0.087551 0.085453
-0.019750 0.088233 0.085573
-0.019750 0.089573 0.085452
-0.019750 0.090927 0.085451
-0.020000 0.091606 0.085451
-0.019500 0.092973 0.085570
-0.019750 0.093659 0.085689
-0.020000 0.094339 0.085689
-0.019750 0.095025 0.085808
-0.019750 0.096383 0.085808
-0.019500 0.097056 0.085687
-0.020000 0.098401 0.085447
-0.019750 0.099067 0.085207
-0.019750 0.100406 0.084847
-0.019750 0.101747 0.084487
-0.020000 0.102420 0.084367
-0.020000 0.103756 0.083888
-0.019750 0.103088 0.084128
-0.019750 0.104430 0.083768
-0.019750 0.105774 0.083408
-0.020000 0.106449 0.083288
-0.020000 0.107787 0.082808
-0.019750 0.107118 0.083048
-0.019750 0.108474 0.082928
-0.019250 0.108480 0.083047
-0.020000 0.109155 0.082928
-0.019750 0.109853 0.083286
-0.020000 0.110539 0.083406
-0.019750 0.111246 0.084004
-0.019250 0.111560 0.091915
-0.020000 0.112277 0.093160
-0.019750 0.113007 0.094858
-0.020000 0.113705 0.095650
-0.019750 0.114406 0.096556
-0.019500 0.115102 0.097348
-0.019250 0.115793 0.098027
-0.020000 0.116463 0.098028
-0.019750 0.117149 0.098594
-0.019500 0.117831 0.099047
-0.019750 0.118504 0.099160
-0.019750 0.119848 0.099387
-0.020000 0.120517 0.099387
-0.019500 0.121863 0.099727
-0.019750 0.122527 0.099501
-0.019750 0.123860 0.099275
-0.020000 0.124520 0.098822
-0.019500 0.124524 0.099049
-0.019500 0.125883 0.098708
-0.019250 0.125207 0.099048
-0.019750 0.126559 0.098368
-0.019750 0.127913 0.097688
-0.019500 0.127238 0.098141
-0.020000 0.128586 0.097121
-0.019500 0.129948 0.096781
-0.019250 0.129272 0.097235
-0.019250 0.130630 0.096668
-0.019750 0.131987 0.095875
-0.019250 0.131991 0.096214
-0.020000 0.132665 0.095421
-0.019750 0.133350 0.095421
-0.019750 0.134716 0.095194
-0.020000 0.135397 0.094854
-0.019500 0.135402 0.095307
-0.019500 0.136767 0.094854
-0.019250 0.136085 0.095194
-0.019750 0.137449 0.094514
-0.019500 0.138134 0.094514
-0.020000 0.139500 0.093948
-0.019500 0.139502 0.094287
-0.019500 0.140869 0.093721
-0.019250 0.140187 0.094174
-0.019750 0.141553 0.093381
-0.019750 0.142922 0.092702
-0.019500 0.142238 0.093154
-0.019500 0.143607 0.092362
-0.019500 0.144978 0.091569
-0.019250 0.144292 0.092022
-0.019750 0.145664 0.091116
-0.020000 0.146351 0.090550
-0.020000 0.147726 0.089645
-0.019750 0.147038 0.090211
-0.019750 0.148414 0.089192
-0.019750 0.149793 0.087947
-0.019500 0.149103 0.088739
-0.020000 0.150474 0.087228
-0.020000 0.151838 0.085670
-0.019750 0.151155 0.086389
-0.019750 0.152519 0.084591
-0.019750 0.153882 0.082314
-0.020000 0.153201 0.083633
-0.020000 0.154566 0.081115
-0.020000 0.155932 0.077998
-0.019750 0.155248 0.079557
-0.019750 0.156612 0.075481
-0.019250 0.157891 0.050905
-0.020000 0.157182 0.051027
-0.020000 0.158597 0.049825
-0.019500 0.158598 0.050065
-0.019750 0.159315 0.049104
-0.019750 0.160739 0.047253
-0.020000 0.160033 0.048143
-0.020000 0.161438 0.045855
-0.019500 0.161445 0.046236
-0.020000 0.162847 0.043440
-0.019750 0.162147 0.044965
-0.019250 0.162153 0.045346
-0.019750 0.163561 0.042677
-0.019250 0.163568 0.043185
-0.019750 0.164974 0.040009
-0.019500 0.164271 0.041660
-0.020000 0.165678 0.038230
-0.019500 0.165689 0.039118
-0.019750 0.166398 0.037594
-0.019250 0.166405 0.038228
-0.020000 0.167079 0.033531
-0.019250 0.167828 0.035306
-0.019500 0.167114 0.036577
-0.019000 0.034645 0.061873
-0.018750 0.035384 0.062231
-0.018750 0.036767 0.062107
-0.019000 0.037452 0.061985
-0.018750 0.038111 0.061623
-0.018250 0.039431 0.060899
-0.018750 0.039444 0.061019
-0.018750 0.040764 0.060295
-0.018500 0.041411 0.059812
-0.019000 0.042696 0.058728
-0.018250 0.042060 0.059330
-0.018500 0.043956 0.057403
-0.018750 0.043332 0.058125
-0.018750 0.044581 0.056680
-0.018250 0.045808 0.054995
-0.018500 0.045194 0.055838
-0.019000 0.046423 0.054153
-0.019000 0.047642 0.052347
-0.018750 0.047026 0.053190
-0.018500 0.048951 0.051382
-0.018750 0.049618 0.051020
-0.018500 0.050297 0.050778
-0.019000 0.051656 0.050293
-0.018750 0.052348 0.050171
-0.018750 0.053727 0.049930
-0.018500 0.053052 0.050169
-0.019000 0.054413 0.049811
-0.018750 0.055112 0.049812
-0.018250 0.055135 0.050052
-0.018250 0.056544 0.050175
-0.018500 0.057253 0.050296
-0.018750 0.058595 0.057140
-0.018500 0.059737 0.061943
-0.018750 0.060583 0.063624
-0.019000 0.061427 0.065305
-0.018750 0.062225 0.066506
-0.018500 0.063031 0.067827
-0.018750 0.063815 0.068907
-0.018250 0.063826 0.069027
-0.019000 0.064565 0.069628
-0.018750 0.065324 0.070468
-0.018500 0.066072 0.071188
-0.018250 0.066829 0.072028
-0.018500 0.067564 0.072628
-0.018250 0.068391 0.074308
-0.018500 0.069155 0.075268
-0.018250 0.069917 0.076228
-0.019000 0.070638 0.076708
-0.018750 0.071388 0.077547
-0.018500 0.072127 0.078267
-0.018250 0.072874 0.079106
-0.018500 0.073582 0.079466
-0.018750 0.074299 0.079946
-0.019000 0.074996 0.080185
-0.018750 0.075712 0.080665
-0.019000 0.076417 0.081024
-0.018750 0.077141 0.081624
-0.019000 0.077864 0.082223
-0.018750 0.078586 0.082822
-0.019000 0.079298 0.083301
-0.018750 0.080010 0.083780
-0.018500 0.080712 0.084139
-0.018250 0.081413 0.084499
-0.019000 0.082105 0.084738
-0.018250 0.082806 0.085097
-0.019000 0.083480 0.085097
-0.018500 0.084854 0.085455
-0.018750 0.085537 0.085575
-0.018750 0.086893 0.085694
-0.018500 0.087567 0.085693
-0.018750 0.088241 0.085693
-0.018750 0.089589 0.085692
-0.018500 0.090263 0.085691
-0.019000 0.091614 0.085570
-0.018750 0.092301 0.085690
-0.018750 0.093667 0.085809
-0.019000 0.094346 0.085809
-0.018500 0.095704 0.085808
-0.018750 0.096383 0.085808
-0.018500 0.097056 0.085687
-0.019000 0.098401 0.085447
-0.019000 0.099733 0.084968
-0.018750 0.099067 0.085207
-0.018750 0.100406 0.084847
-0.018500 0.101073 0.084608
-0.019000 0.102420 0.084367
-0.018500 0.103756 0.083888
-0.018750 0.103088 0.084128
-0.018750 0.104430 0.083768
-0.018500 0.105099 0.083528
-0.019000 0.106449 0.083288
-0.018750 0.107124 0.083168
-0.018750 0.108480 0.083047
-0.018500 0.109178 0.083406
-0.019000 0.110561 0.083885
-0.018500 0.110566 0.084004
-0.018750 0.111587 0.092708
-0.018250 0.111623 0.093726
-0.018500 0.112327 0.094631
-0.018250 0.113045 0.095990
-0.019000 0.113727 0.096329
-0.018250 0.114435 0.097461
-0.019000 0.115109 0.097574
-0.018250 0.115803 0.098367
-0.018500 0.116483 0.098707
-0.018500 0.117841 0.099387
-0.018750 0.118516 0.099613
-0.018500 0.119191 0.099840
-0.018250 0.119865 0.100067
-0.019000 0.120528 0.099840
-0.018500 0.120534 0.100067
-0.019000 0.121868 0.099954
-0.018750 0.121202 0.100067
-0.018750 0.122539 0.100068
-0.018750 0.123869 0.099728
-0.019000 0.124529 0.099275
-0.019000 0.125887 0.098935
-0.018750 0.125209 0.099162
-0.018750 0.126567 0.098821
-0.018500 0.127246 0.098595
-0.019000 0.128596 0.097688
-0.018750 0.129275 0.097461
-0.018250 0.130640 0.097347
-0.019000 0.131314 0.096668
-0.018500 0.132680 0.096554
-0.018750 0.133360 0.096214
-0.019000 0.134040 0.095874
-0.018500 0.134042 0.096100
-0.018500 0.135407 0.095760
-0.018750 0.136088 0.095420
-0.018250 0.137456 0.095307
-0.018750 0.138821 0.094740
-0.018500 0.138138 0.095080
-0.019000 0.139504 0.094514
-0.019000 0.140871 0.093947
-0.018750 0.140188 0.094400
-0.018750 0.141556 0.093834
-0.018750 0.142924 0.093154
-0.019000 0.143608 0.092588
-0.019000 0.144978 0.091796
-0.018750 0.144293 0.092248
-0.018750 0.145664 0.091343
-0.019000 0.146351 0.090890
-0.019000 0.147726 0.089871
-0.018250 0.147038 0.090550
-0.018750 0.148414 0.089418
-0.018750 0.149793 0.088060
-0.019000 0.150476 0.087348
-0.019000 0.151837 0.085550
-0.018750 0.151156 0.086509
-0.018250 0.152519 0.084591
-0.018250 0.153884 0.082554
-0.019000 0.153201 0.083633
-0.018500 0.154565 0.080995
-0.019000 0.154566 0.081115
-0.019000 0.155927 0.077159
-0.018750 0.155247 0.079437
-0.018250 0.156612 0.075481
-0.018750 0.157891 0.050905
-0.018500 0.157185 0.051506
-0.019000 0.158598 0.050065
-0.018750 0.159316 0.049464
-0.018750 0.160746 0.047634
-0.019000 0.160034 0.048503
-0.019000 0.161449 0.046490
-0.019000 0.162863 0.044456
-0.018750 0.162157 0.045600
-0.018250 0.163577 0.043819
-0.018750 0.164988 0.041024
-0.018500 0.164283 0.042548
-0.019000 0.165699 0.039880
-0.018500 0.165702 0.040134
-0.018750 0.166415 0.038990
-0.018250 0.166418 0.039244
-0.018750 0.167844 0.036702
-0.018250 0.167850 0.037337
-0.018500 0.167131 0.038100
-0.019000 0.168554 0.034924
-0.018500 0.168561 0.035685
-0.019000 0.169968 0.030099
-0.018500 0.169994 0.032890
-0.018750 0.169272 0.033780
-0.018250 0.169282 0.034796
-0.018250 0.170715 0.031747
-0.018000 0.034672 0.062113
-0.017750 0.035411 0.062471
-0.017750 0.036781 0.062227
-0.018000 0.037439 0.061865
-0.017500 0.038784 0.061381
-0.017750 0.039431 0.060899
-0.017250 0.039444 0.061019
-0.017250 0.040725 0.059934
-0.018000 0.040091 0.060537
-0.017500 0.041386 0.059572
-0.017500 0.042670 0.058487
-0.017750 0.042034 0.059090
-0.017750 0.043307 0.057885
-0.017750 0.044569 0.056560
-0.017750 0.045796 0.054875
-0.018000 0.045194 0.055838
-0.018000 0.046398 0.053913
-0.017500 0.046411 0.054033
-0.018000 0.047642 0.052347
-0.017750 0.047014 0.053070
-0.017750 0.048296 0.051865
-0.017750 0.049630 0.051140
-0.018000 0.050309 0.050898
-0.017500 0.051680 0.050533
-0.017750 0.052372 0.050411
-0.017750 0.053750 0.050170
-0.018000 0.054437 0.050051
-0.017500 0.055857 0.050294
-0.017750 0.056555 0.050295
-0.018000 0.057265 0.050416
-0.017750 0.058765 0.058941
-0.017250 0.058832 0.059661
-0.018000 0.059760 0.062183
-0.017750 0.060594 0.063744
-0.017250 0.060628 0.064104
-0.018000 0.061471 0.065785
-0.017750 0.062258 0.066866
-0.018000 0.063042 0.067947
-0.017500 0.063053 0.068067
-0.017750 0.063826 0.069027
-0.018000 0.064575 0.069748
-0.017750 0.065335 0.070588
-0.018000 0.066082 0.071308
-0.017750 0.066839 0.072148
-0.018000 0.067596 0.072988
-0.017500 0.067616 0.073228
-0.017250 0.068422 0.074668
-0.018000 0.069155 0.075268
-0.017750 0.069917 0.076228
-0.018000 0.070668 0.077068
-0.017750 0.071418 0.077907
-0.017250 0.071428 0.078027
-0.018000 0.072147 0.078507
-0.017750 0.072884 0.079226
-0.018000 0.073602 0.079706
-0.017750 0.074318 0.080186
-0.017500 0.075034 0.080665
-0.017250 0.075740 0.081024
-0.018000 0.076427 0.081144
-0.017750 0.077150 0.081743
-0.018000 0.077864 0.082223
-0.017750 0.078595 0.082942
-0.018000 0.079298 0.083301
-0.017750 0.080019 0.083900
-0.018000 0.080721 0.084259
-0.017750 0.081422 0.084618
-0.018000 0.082114 0.084858
-0.017750 0.082806 0.085097
-0.018000 0.083489 0.085217
-0.017500 0.084871 0.085695
-0.017750 0.085545 0.085694
-0.017750 0.086901 0.085813
-0.018000 0.087567 0.085693
-0.017500 0.088931 0.085932
-0.017750 0.089597 0.085811
-0.017750 0.090950 0.085810
-0.018000 0.091621 0.085690
-0.017500 0.092988 0.085809
-0.017750 0.093667 0.085809
-0.018000 0.094346 0.085809
-0.017500 0.095704 0.085808
-0.017750 0.096383 0.085808
-0.017500 0.097056 0.085687
-0.018000 0.098401 0.085447
-0.017500 0.099740 0.085087
-0.017750 0.100406 0.084847
-0.017750 0.101747 0.084487
-0.018000 0.102414 0.084248
-0.017750 0.103088 0.084128
-0.017750 0.104430 0.083768
-0.017500 0.105105 0.083648
-0.018000 0.106454 0.083408
-0.017750 0.107129 0.083288
-0.017750 0.108491 0.083287
-0.018000 0.109189 0.083646
-0.017750 0.109897 0.084244
-0.018000 0.110837 0.090558
-0.017500 0.110861 0.091237
-0.017750 0.111623 0.093726
-0.018000 0.112334 0.094858
-0.017500 0.112354 0.095424
-0.017750 0.113048 0.096103
-0.017500 0.113749 0.097008
-0.017750 0.114442 0.097688
-0.017750 0.115810 0.098594
-0.018000 0.116489 0.098933
-0.017500 0.116496 0.099160
-0.017500 0.117847 0.099613
-0.017750 0.118522 0.099840
-0.018000 0.119194 0.099953
-0.017750 0.119868 0.100180
-0.018000 0.120537 0.100180
-0.017500 0.121876 0.100294
-0.017750 0.122542 0.100181
-0.017750 0.123876 0.100068
-0.017500 0.124543 0.099955
-0.017500 0.125898 0.099501
-0.017750 0.126573 0.099161
-0.017750 0.127928 0.098594
-0.018000 0.128603 0.098141
-0.017500 0.129964 0.097800
-0.017250 0.129286 0.098141
-0.017750 0.130644 0.097574
-0.018000 0.131322 0.097234
-0.018000 0.132683 0.096780
-0.017750 0.132004 0.097120
-0.017250 0.133368 0.096893
-0.017500 0.134049 0.096667
-0.018000 0.135409 0.095987
-0.017500 0.135412 0.096213
-0.017500 0.136776 0.095873
-0.017250 0.136096 0.096213
-0.017750 0.137458 0.095533
-0.017500 0.138141 0.095420
-0.018000 0.139506 0.094853
-0.017500 0.139508 0.095080
-0.017750 0.140190 0.094740
-0.017750 0.141557 0.094173
-0.017500 0.142241 0.093834
-0.018000 0.143609 0.092928
-0.017500 0.143609 0.093041
-0.018000 0.144979 0.091909
-0.017750 0.144294 0.092475
-0.017750 0.145665 0.091569
-0.018000 0.146351 0.091003
-0.018000 0.147726 0.089984
-0.017750 0.147038 0.090550
-0.017750 0.148414 0.089418
-0.017750 0.149793 0.088060
-0.018000 0.150474 0.087228
-0.018000 0.151837 0.085550
-0.017750 0.151155 0.086389
-0.017750 0.152519 0.084591
-0.017750 0.153884 0.082554
-0.018000 0.153201 0.083633
-0.018000 0.154565 0.080995
-0.017500 0.154566 0.081115
-0.018000 0.155926 0.077039
-0.017750 0.155245 0.079197
-0.017250 0.156609 0.074882
-0.017750 0.156613 0.075601
-0.017500 0.157185 0.051506
-0.018000 0.158599 0.050305
-0.017750 0.159316 0.049584
-0.017750 0.160748 0.047761
-0.018000 0.160034 0.048743
-0.018000 0.161455 0.046871
-0.018000 0.162870 0.044963
-0.017750 0.162163 0.045980
-0.017750 0.163581 0.044073
-0.017750 0.164998 0.041785
-0.018000 0.164289 0.042929
-0.017500 0.164291 0.043056
-0.018000 0.165706 0.040387
-0.017250 0.165001 0.042039
-0.017250 0.166425 0.039878
-0.017750 0.167856 0.037844
-0.017500 0.167140 0.038861
-0.018000 0.168568 0.036320
-0.017750 0.169288 0.035430
-0.017750 0.170722 0.032635
-0.018000 0.170003 0.033905
-0.017500 0.170009 0.034540
-0.018000 0.171437 0.030603
-0.017500 0.171445 0.031618
-0.017500 0.172880 0.027428
-0.017750 0.172156 0.028825
-0.017250 0.172168 0.030475
-0.016250 0.035424 0.062591
-0.016750 0.036781 0.062227
-0.017000 0.037452 0.061985
-0.016750 0.038111 0.061623
-0.016250 0.039418 0.060779
-0.016750 0.039444 0.061019
-0.016750 0.040751 0.060174
-0.017000 0.041373 0.059452
-0.016500 0.042657 0.058367
-0.017000 0.043906 0.056923
-0.016750 0.043269 0.057525
-0.016750 0.044544 0.056320
-0.016750 0.045771 0.054635
-0.017000 0.045169 0.055598
-0.016500 0.046386 0.053792
-0.016500 0.047642 0.052347
-0.016750 0.047014 0.053070
-0.016750 0.048296 0.051865
-0.016750 0.049630 0.051140
-0.016500 0.050309 0.050898
-0.016500 0.051692 0.050653
-0.016750 0.052372 0.050411
-0.016500 0.053075 0.050409
-0.016500 0.054472 0.050411
-0.016750 0.055170 0.050413
-0.016750 0.056578 0.050535
-0.016500 0.057879 0.056899
-0.017000 0.057924 0.057380
-0.016750 0.058799 0.059301
-0.017000 0.059704 0.061583
-0.016500 0.059771 0.062303
-0.016250 0.060617 0.063984
-0.016750 0.060661 0.064464
-0.017000 0.061460 0.065665
-0.016750 0.062258 0.066866
-0.016500 0.063042 0.067947
-0.017000 0.063053 0.068067
-0.016750 0.063847 0.069267
-0.017000 0.064597 0.069988
-0.016500 0.064607 0.070108
-0.016750 0.065345 0.070708
-0.017000 0.066103 0.071548
-0.016750 0.066860 0.072388
-0.017000 0.067616 0.073228
-0.016250 0.068443 0.074908
-0.016500 0.069196 0.075748
-0.016750 0.069948 0.076588
-0.016500 0.070698 0.077427
-0.016750 0.071428 0.078027
-0.017000 0.072166 0.078747
-0.016750 0.072894 0.079346
-0.016500 0.073621 0.079946
-0.016250 0.074338 0.080425
-0.017000 0.075034 0.080665
-0.016750 0.075750 0.081144
-0.017000 0.076445 0.081384
-0.016750 0.077169 0.081983
-0.017000 0.077873 0.082343
-0.016750 0.078586 0.082822
-0.017000 0.079307 0.083421
-0.016750 0.080019 0.083900
-0.017000 0.080729 0.084379
-0.016750 0.081422 0.084618
-0.017000 0.082114 0.084858
-0.016750 0.082815 0.085217
-0.016500 0.083515 0.085576
-0.016500 0.084880 0.085815
-0.016750 0.085554 0.085814
-0.016500 0.086236 0.085934
-0.016250 0.086917 0.086053
-0.017000 0.087583 0.085933
-0.016500 0.087591 0.086052
-0.017000 0.088931 0.085932
-0.016250 0.088265 0.086052
-0.016750 0.089605 0.085931
-0.016250 0.089612 0.086051
-0.016500 0.090278 0.085931
-0.017000 0.091629 0.085810
-0.016750 0.092308 0.085810
-0.016250 0.093659 0.085689
-0.017000 0.094346 0.085809
-0.016500 0.095704 0.085808
-0.016750 0.096383 0.085808
-0.016500 0.097056 0.085687
-0.017000 0.098401 0.085447
-0.017000 0.099733 0.084968
-0.016750 0.099067 0.085207
-0.016750 0.100406 0.084847
-0.016750 0.101747 0.084487
-0.017000 0.102420 0.084367
-0.017000 0.103756 0.083888
-0.016750 0.103088 0.084128
-0.016750 0.104430 0.083768
-0.016500 0.105105 0.083648
-0.017000 0.106454 0.083408
-0.016750 0.107129 0.083288
-0.016750 0.108502 0.083526
-0.017000 0.109200 0.083885
-0.016500 0.109211 0.084125
-0.016250 0.110161 0.090558
-0.017000 0.110881 0.091802
-0.016500 0.110917 0.092821
-0.016750 0.111634 0.094066
-0.016500 0.112365 0.095763
-0.016750 0.113063 0.096556
-0.017000 0.113757 0.097235
-0.016750 0.114449 0.097914
-0.016250 0.114453 0.098027
-0.016500 0.115137 0.098480
-0.016250 0.115823 0.099046
-0.017000 0.116499 0.099273
-0.016500 0.117853 0.099839
-0.016750 0.118528 0.100066
-0.016750 0.119871 0.100293
-0.017000 0.120542 0.100407
-0.016750 0.121211 0.100407
-0.016750 0.122547 0.100407
-0.016750 0.123881 0.100295
-0.017000 0.124545 0.100068
-0.016500 0.125904 0.099841
-0.016750 0.126580 0.099501
-0.016750 0.127932 0.098821
-0.016500 0.127256 0.099161
-0.017000 0.128609 0.098481
-0.016500 0.129971 0.098254
-0.016750 0.130649 0.097914
-0.016250 0.130650 0.098027
-0.017000 0.131327 0.097573
-0.016500 0.132690 0.097347
-0.016750 0.133371 0.097120
-0.016750 0.134734 0.096780
-0.016500 0.134053 0.097006
-0.017000 0.135414 0.096440
-0.016750 0.136097 0.096326
-0.016750 0.137462 0.095986
-0.016250 0.137463 0.096099
-0.016750 0.138827 0.095533
-0.017000 0.139509 0.095193
-0.016500 0.140875 0.094740
-0.016250 0.140193 0.095079
-0.016750 0.141558 0.094400
-0.016750 0.142925 0.093494
-0.016500 0.142242 0.094060
-0.017000 0.143609 0.093041
-0.016750 0.144294 0.092588
-0.016750 0.145665 0.091682
-0.017000 0.146351 0.091116
-0.016500 0.147726 0.089984
-0.016750 0.147038 0.090663
-0.016750 0.148414 0.089418
-0.016250 0.149793 0.087947
-0.017000 0.149103 0.088739
-0.017000 0.150476 0.087348
-0.017000 0.151837 0.085550
-0.016750 0.151155 0.086389
-0.016250 0.152519 0.084591
-0.016750 0.153881 0.082194
-0.016500 0.153199 0.083393
-0.017000 0.154564 0.080876
-0.017000 0.155927 0.077159
-0.016750 0.155244 0.078958
-0.016250 0.156607 0.074642
-0.016750 0.156610 0.075121
-0.016250 0.157890 0.050666
-0.016500 0.157185 0.051506
-0.017000 0.158598 0.050185
-0.016750 0.159316 0.049464
-0.016750 0.160748 0.047761
-0.016500 0.160034 0.048503
-0.017000 0.161455 0.046871
-0.016500 0.162872 0.045090
-0.016250 0.163581 0.044073
-0.017000 0.164294 0.043310
-0.016500 0.165717 0.041276
-0.016250 0.165007 0.042420
-0.016750 0.166429 0.040132
-0.016750 0.167863 0.038479
-0.016500 0.167147 0.039496
-0.017000 0.168578 0.037335
-0.016750 0.169296 0.036318
-0.016750 0.170731 0.033650
-0.016250 0.170736 0.034285
-0.016500 0.170016 0.035301
-0.017000 0.171452 0.032507
-0.017000 0.172889 0.028823
-0.016500 0.172897 0.029965
-0.016750 0.172174 0.031363
-0.016750 0.173614 0.027553
-0.016250 0.173623 0.028949
-0.016500 0.174339 0.025902
-0.015250 0.035437 0.062711
-0.015500 0.036109 0.062469
-0.016000 0.037452 0.061985
-0.015500 0.038784 0.061381
-0.015750 0.039418 0.060779
-0.015250 0.039444 0.061019
-0.015250 0.040725 0.059934
-0.015500 0.040078 0.060416
-0.015250 0.041996 0.058730
-0.016000 0.041373 0.059452
-0.015500 0.042657 0.058367
-0.016000 0.043893 0.056802
-0.015750 0.043269 0.057525
-0.015750 0.044506 0.055960
-0.015750 0.045759 0.054515
-0.015500 0.045144 0.055357
-0.016000 0.046373 0.053672
-0.015500 0.047655 0.052467
-0.015750 0.048296 0.051865
-0.015750 0.049630 0.051140
-0.016000 0.050309 0.050898
-0.015500 0.050321 0.051018
-0.015750 0.051000 0.050776
-0.015750 0.052384 0.050531
-0.015750 0.053774 0.050410
-0.016000 0.054472 0.050411
-0.015750 0.055182 0.050533
-0.015250 0.056601 0.050775
-0.015500 0.057913 0.057259
-0.015750 0.058832 0.059661
-0.015500 0.059760 0.062183
-0.015250 0.060639 0.064224
-0.016000 0.061460 0.065665
-0.015750 0.062247 0.066746
-0.015500 0.063042 0.067947
-0.016000 0.063053 0.068067
-0.015750 0.063837 0.069147
-0.015500 0.064597 0.069988
-0.016000 0.064607 0.070108
-0.015250 0.065367 0.070948
-0.015750 0.065377 0.071068
-0.016000 0.066114 0.071668
-0.015250 0.066881 0.072628
-0.015500 0.067679 0.073948
-0.015750 0.068443 0.074908
-0.015250 0.068464 0.075148
-0.016000 0.069206 0.075868
-0.015750 0.069958 0.076708
-0.016000 0.070708 0.077548
-0.015750 0.071448 0.078267
-0.016000 0.072176 0.078867
-0.015750 0.072914 0.079586
-0.016000 0.073631 0.080066
-0.015750 0.074347 0.080545
-0.016000 0.075053 0.080905
-0.015750 0.075769 0.081384
-0.016000 0.076464 0.081624
-0.015500 0.077882 0.082462
-0.015750 0.078595 0.082942
-0.016000 0.079298 0.083301
-0.015750 0.080019 0.083900
-0.016000 0.080721 0.084259
-0.015750 0.081422 0.084618
-0.016000 0.082123 0.084978
-0.015750 0.082815 0.085217
-0.016000 0.083506 0.085456
-0.015500 0.084888 0.085935
-0.015750 0.085562 0.085934
-0.015250 0.085570 0.086054
-0.015750 0.086917 0.086053
-0.016000 0.087591 0.086052
-0.015750 0.088273 0.086172
-0.015750 0.089612 0.086051
-0.016000 0.090278 0.085931
-0.015250 0.090965 0.086050
-0.016000 0.091629 0.085810
-0.015750 0.092308 0.085810
-0.015750 0.093659 0.085689
-0.016000 0.094339 0.085689
-0.015500 0.095697 0.085688
-0.015750 0.096377 0.085688
-0.015750 0.097728 0.085567
-0.016000 0.098401 0.085447
-0.016000 0.099733 0.084968
-0.015750 0.099067 0.085207
-0.015750 0.100406 0.084847
-0.015500 0.101073 0.084608
-0.016000 0.102414 0.084248
-0.016000 0.103756 0.083888
-0.015750 0.103088 0.084128
-0.015750 0.104430 0.083768
-0.015500 0.105105 0.083648
-0.016000 0.106460 0.083527
-0.015500 0.107827 0.083646
-0.015750 0.108519 0.083886
-0.015500 0.109211 0.084125
-0.015250 0.110028 0.087117
-0.015750 0.110161 0.090558
-0.015500 0.110873 0.091576
-0.016000 0.110917 0.092821
-0.015750 0.111654 0.094632
-0.015500 0.112373 0.095990
-0.015750 0.113071 0.096782
-0.015500 0.113768 0.097574
-0.015750 0.114460 0.098254
-0.016000 0.115144 0.098707
-0.015750 0.115823 0.099046
-0.016000 0.116503 0.099386
-0.015500 0.117857 0.099953
-0.015750 0.118531 0.100179
-0.015750 0.119874 0.100406
-0.016000 0.120545 0.100520
-0.015500 0.121881 0.100520
-0.015750 0.122547 0.100407
-0.015750 0.123884 0.100408
-0.015500 0.124550 0.100295
-0.016000 0.125904 0.099841
-0.015750 0.125227 0.100068
-0.015250 0.126584 0.099727
-0.015500 0.127260 0.099387
-0.016000 0.128615 0.098821
-0.015500 0.129974 0.098480
-0.015750 0.130652 0.098140
-0.016000 0.131332 0.097913
-0.015500 0.131335 0.098140
-0.015750 0.132013 0.097800
-0.015750 0.133375 0.097460
-0.015500 0.134057 0.097346
-0.016000 0.135419 0.096893
-0.015500 0.135420 0.097006
-0.015750 0.136101 0.096779
-0.015250 0.137466 0.096439
-0.015750 0.138829 0.095872
-0.015500 0.138147 0.096099
-0.015500 0.139512 0.095646
-0.016000 0.140876 0.094853
-0.015250 0.140194 0.095306
-0.015750 0.141559 0.094513
-0.015750 0.142926 0.093720
-0.016000 0.142242 0.094060
-0.015500 0.143610 0.093267
-0.015750 0.144294 0.092701
-0.015750 0.145665 0.091682
-0.016000 0.146351 0.091229
-0.016000 0.147726 0.089984
-0.015750 0.147038 0.090550
-0.015750 0.148414 0.089305
-0.015750 0.149793 0.087947
-0.016000 0.149103 0.088739
-0.015500 0.150473 0.087108
-0.015500 0.151836 0.085430
-0.015750 0.151155 0.086389
-0.015750 0.152518 0.084472
-0.015250 0.153879 0.081954
-0.015750 0.153880 0.082074
-0.016000 0.153199 0.083393
-0.016000 0.154561 0.080516
-0.016000 0.155926 0.077039
-0.015750 0.155244 0.078958
-0.015250 0.156603 0.073923
-0.015750 0.156605 0.074162
-0.015250 0.157890 0.050546
-0.016000 0.157183 0.051147
-0.016000 0.158597 0.049945
-0.015250 0.159314 0.048864
-0.015750 0.159315 0.049104
-0.015750 0.160743 0.047507
-0.015500 0.160033 0.048263
-0.016000 0.161453 0.046744
-0.015500 0.162868 0.044836
-0.015750 0.162161 0.045853
-0.015750 0.163581 0.044073
-0.016000 0.164294 0.043310
-0.016000 0.165718 0.041403
-0.015750 0.165007 0.042420
-0.015750 0.166435 0.040640
-0.015750 0.167867 0.038860
-0.015500 0.167152 0.039877
-0.015500 0.168585 0.037970
-0.015750 0.169303 0.036953
-0.015250 0.170741 0.034792
-0.016000 0.170018 0.035555
-0.016000 0.171458 0.033268
-0.016000 0.172902 0.030727
-0.015500 0.172905 0.031234
-0.015250 0.172183 0.032505
-0.015250 0.173628 0.029837
-0.016000 0.174347 0.027425
-0.015500 0.174352 0.028313
-0.015500 0.175801 0.024250
-0.015250 0.175079 0.026916
-0.014250 0.035464 0.062951
-0.014750 0.035491 0.063192
-0.014750 0.036834 0.062707
-0.015000 0.037466 0.062105
-0.014500 0.038797 0.061501
-0.014250 0.039457 0.061139
-0.014750 0.040712 0.059814
-0.014500 0.040091 0.060537
-0.014250 0.041983 0.058610
-0.014500 0.041360 0.059332
-0.014500 0.042632 0.058127
-0.014500 0.043881 0.056682
-0.014250 0.043256 0.057405
-0.014250 0.044468 0.055600
-0.014750 0.045746 0.054395
-0.015000 0.045119 0.055117
-0.014500 0.046361 0.053552
-0.014500 0.047642 0.052347
-0.014750 0.048296 0.051865
-0.014250 0.049630 0.051140
-0.014500 0.050321 0.051018
-0.014500 0.051692 0.050653
-0.014250 0.052384 0.050531
-0.014750 0.053774 0.050410
-0.014500 0.054484 0.050531
-0.014750 0.055182 0.050533
-0.014250 0.056613 0.050895
-0.015000 0.057970 0.057860
-0.014500 0.057993 0.058100
-0.014750 0.058855 0.059902
-0.014250 0.058878 0.060142
-0.015000 0.059771 0.062303
-0.014250 0.060617 0.063984
-0.014750 0.060628 0.064104
-0.014500 0.061482 0.065906
-0.014250 0.062247 0.066746
-0.014500 0.063053 0.068067
-0.014250 0.063837 0.069147
-0.014500 0.064618 0.070228
-0.014750 0.065377 0.071068
-0.015000 0.066125 0.071788
-0.014750 0.066902 0.072868
-0.014500 0.067699 0.074188
-0.014250 0.068474 0.075268
-0.015000 0.069216 0.075988
-0.014250 0.069978 0.076948
-0.014500 0.070718 0.077667
-0.014750 0.071458 0.078387
-0.014750 0.072933 0.079826
-0.014500 0.073650 0.080306
-0.014250 0.074376 0.080905
-0.014500 0.075073 0.081145
-0.014500 0.076483 0.081864
-0.014500 0.077892 0.082582
-0.014250 0.078595 0.082942
-0.015000 0.079298 0.083301
-0.014250 0.080010 0.083780
-0.014500 0.080721 0.084259
-0.014250 0.081422 0.084618
-0.014500 0.082123 0.084978
-0.014250 0.082823 0.085337
-0.014500 0.083506 0.085456
-0.014750 0.084206 0.085815
-0.014250 0.085570 0.086054
-0.014500 0.086252 0.086173
-0.014500 0.087599 0.086172
-0.014500 0.088947 0.086171
-0.014250 0.089620 0.086171
-0.014750 0.090965 0.086050
-0.014500 0.091637 0.085930
-0.014750 0.092308 0.085810
-0.014250 0.093652 0.085570
-0.014500 0.094331 0.085569
-0.014500 0.095690 0.085568
-0.014750 0.096369 0.085568
-0.014500 0.097049 0.085568
-0.014500 0.098394 0.085328
-0.014500 0.099733 0.084968
-0.014250 0.099067 0.085207
-0.014250 0.100400 0.084728
-0.014750 0.101747 0.084487
-0.014500 0.102414 0.084248
-0.014500 0.103756 0.083888
-0.014250 0.103082 0.084008
-0.014250 0.104430 0.083768
-0.014500 0.105105 0.083648
-0.014500 0.106466 0.083647
-0.014750 0.107147 0.083647
-0.014250 0.108536 0.084245
-0.015000 0.109228 0.084484
-0.014500 0.109316 0.086399
-0.014250 0.110050 0.087596
-0.014500 0.110921 0.092934
-0.015000 0.110925 0.093047
-0.014750 0.111670 0.095084
-0.014500 0.112381 0.096216
-0.014250 0.113075 0.096895
-0.014500 0.113771 0.097687
-0.014250 0.114463 0.098367
-0.015000 0.115144 0.098707
-0.014250 0.115827 0.099159
-0.014500 0.116506 0.099499
-0.014250 0.117185 0.099839
-0.014500 0.117860 0.100066
-0.014250 0.118534 0.100293
-0.014750 0.119877 0.100520
-0.014500 0.120545 0.100520
-0.014500 0.121884 0.100634
-0.014250 0.122550 0.100521
-0.014500 0.123218 0.100521
-0.014500 0.124550 0.100295
-0.014500 0.125906 0.099954
-0.014250 0.125229 0.100181
-0.014250 0.126584 0.099727
-0.014750 0.127940 0.099274
-0.015000 0.128616 0.098934
-0.014500 0.128618 0.099047
-0.014500 0.129978 0.098707
-0.014750 0.130657 0.098480
-0.014500 0.131338 0.098366
-0.014500 0.132698 0.097913
-0.014750 0.132016 0.098026
-0.014250 0.133381 0.097912
-0.014750 0.134740 0.097346
-0.014500 0.135422 0.097232
-0.014500 0.136785 0.096779
-0.014250 0.136105 0.097119
-0.014750 0.137467 0.096552
-0.014750 0.138830 0.095986
-0.014500 0.138149 0.096325
-0.015000 0.139512 0.095646
-0.014500 0.140877 0.094966
-0.014250 0.140195 0.095419
-0.014250 0.141560 0.094626
-0.014250 0.142926 0.093720
-0.014500 0.142243 0.094173
-0.014500 0.143610 0.093267
-0.014750 0.144295 0.092814
-0.014750 0.145665 0.091682
-0.015000 0.146351 0.091003
-0.014500 0.147726 0.089871
-0.014750 0.147038 0.090550
-0.014250 0.148414 0.089305
-0.014250 0.149792 0.087827
-0.014500 0.149103 0.088739
-0.014500 0.150473 0.087108
-0.015000 0.151835 0.085311
-0.014250 0.151152 0.086030
-0.014250 0.152515 0.084232
-0.014750 0.153879 0.081835
-0.015000 0.153197 0.083153
-0.014500 0.154558 0.080037
-0.015000 0.155923 0.076560
-0.014250 0.155240 0.078358
-0.014750 0.156600 0.073323
-0.014250 0.157887 0.049946
-0.014500 0.157181 0.050667
-0.014500 0.158594 0.049226
-0.014250 0.159312 0.048265
-0.014250 0.160731 0.046746
-0.014500 0.160024 0.047636
-0.015000 0.160031 0.048016
-0.014500 0.161442 0.046109
-0.014500 0.162865 0.044582
-0.014250 0.162151 0.045219
-0.014250 0.163575 0.043692
-0.014500 0.164289 0.042929
-0.015000 0.164292 0.043183
-0.014500 0.165720 0.041530
-0.014250 0.165003 0.042166
-0.014250 0.166438 0.040893
-0.014750 0.167867 0.038860
-0.014500 0.167152 0.039877
-0.015000 0.168585 0.037970
-0.014500 0.168586 0.038096
-0.014250 0.169305 0.037207
-0.014250 0.170742 0.034919
-0.014500 0.170023 0.036063
-0.014500 0.171463 0.033902
-0.014500 0.172907 0.031488
-0.014250 0.172185 0.032886
-0.014750 0.173630 0.030218
-0.015000 0.174354 0.028694
-0.014500 0.174356 0.029074
-0.014500 0.175809 0.025899
-0.014250 0.175083 0.027804
-0.014250 0.176539 0.024629
-0.013750 0.035945 0.067273
-0.014000 0.036069 0.062109
-0.013250 0.036052 0.068233
-0.014000 0.037452 0.061985
-0.013750 0.037351 0.067389
-0.013250 0.037496 0.068710
-0.014000 0.038797 0.061501
-0.013500 0.038099 0.067867
-0.013250 0.039405 0.060659
-0.013750 0.039457 0.061139
-0.013500 0.040091 0.060537
-0.013750 0.041983 0.058610
-0.014000 0.041360 0.059332
-0.013500 0.042606 0.057887
-0.014000 0.042619 0.058007
-0.014000 0.043881 0.056682
-0.013750 0.043256 0.057405
-0.013750 0.044481 0.055720
-0.013750 0.045734 0.054275
-0.013750 0.046989 0.052830
-0.014000 0.046361 0.053552
-0.013500 0.047630 0.052227
-0.013500 0.048951 0.051382
-0.013750 0.049630 0.051140
-0.014000 0.050309 0.050898
-0.013500 0.051692 0.050653
-0.013750 0.052384 0.050531
-0.013500 0.053087 0.050529
-0.014000 0.054484 0.050531
-0.013500 0.055903 0.050774
-0.013750 0.056613 0.050895
-0.013250 0.056635 0.051136
-0.014000 0.057936 0.057500
-0.013750 0.058821 0.059541
-0.013250 0.058866 0.060022
-0.013500 0.059771 0.062303
-0.013750 0.060605 0.063864
-0.013500 0.061438 0.065425
-0.013750 0.062258 0.066866
-0.014000 0.063042 0.067947
-0.013750 0.063837 0.069147
-0.014000 0.064618 0.070228
-0.013250 0.065409 0.071428
-0.014000 0.066146 0.072028
-0.013250 0.066934 0.073228
-0.014000 0.067699 0.074188
-0.013750 0.068474 0.075268
-0.014000 0.069226 0.076108
-0.013750 0.069988 0.077068
-0.014000 0.070718 0.077667
-0.013750 0.071468 0.078507
-0.013750 0.072933 0.079826
-0.013500 0.073660 0.080426
-0.013250 0.074376 0.080905
-0.013500 0.075082 0.081265
-0.014000 0.076483 0.081864
-0.013750 0.077188 0.082223
-0.013750 0.078595 0.082942
-0.014000 0.079298 0.083301
-0.013250 0.080001 0.083660
-0.014000 0.080721 0.084259
-0.013750 0.081413 0.084499
-0.014000 0.082114 0.084858
-0.013750 0.082815 0.085217
-0.014000 0.083515 0.085576
-0.013500 0.084880 0.085815
-0.013750 0.085570 0.086054
-0.013750 0.086934 0.086292
-0.014000 0.087607 0.086292
-0.013750 0.088281 0.086291
-0.013750 0.089620 0.086171
-0.013500 0.090294 0.086170
-0.013500 0.091637 0.085930
-0.014000 0.091644 0.086050
-0.013500 0.092988 0.085809
-0.013750 0.093659 0.085689
-0.014000 0.094331 0.085569
-0.013500 0.095683 0.085449
-0.013750 0.096362 0.085448
-0.013750 0.097714 0.085328
-0.014000 0.098394 0.085328
-0.014000 0.099733 0.084968
-0.013750 0.099060 0.085088
-0.013750 0.100400 0.084728
-0.013750 0.101740 0.084368
-0.014000 0.102414 0.084248
-0.014000 0.103756 0.083888
-0.013750 0.103082 0.084008
-0.013750 0.104430 0.083768
-0.013500 0.105105 0.083648
-0.014000 0.106460 0.083527
-0.013500 0.107839 0.083886
-0.013250 0.108542 0.084364
-0.014000 0.109300 0.086040
-0.013500 0.109361 0.087357
-0.013750 0.110061 0.087836
-0.013250 0.110074 0.088182
-0.013500 0.110945 0.093613
-0.013750 0.111666 0.094971
-0.013250 0.111670 0.095084
-0.014000 0.112385 0.096329
-0.013500 0.113771 0.097687
-0.013750 0.114460 0.098254
-0.014000 0.115147 0.098820
-0.013750 0.115827 0.099159
-0.014000 0.116506 0.099499
-0.013750 0.117185 0.099839
-0.014000 0.117860 0.100066
-0.013250 0.118531 0.100179
-0.013500 0.119206 0.100406
-0.014000 0.120548 0.100633
-0.013750 0.121213 0.100520
-0.013750 0.122550 0.100521
-0.013500 0.123215 0.100408
-0.014000 0.124550 0.100295
-0.014000 0.125906 0.099954
-0.013750 0.125229 0.100181
-0.013750 0.126584 0.099727
-0.013500 0.127264 0.099614
-0.014000 0.128620 0.099160
-0.013500 0.129981 0.098933
-0.013750 0.129301 0.099047
-0.013750 0.130660 0.098706
-0.014000 0.131340 0.098479
-0.013750 0.132021 0.098366
-0.013750 0.133383 0.098139
-0.013500 0.134064 0.097912
-0.014000 0.135425 0.097459
-0.013750 0.136106 0.097232
-0.013750 0.137469 0.096779
-0.013500 0.138150 0.096439
-0.014000 0.139513 0.095759
-0.013750 0.140195 0.095419
-0.013750 0.141560 0.094626
-0.013750 0.142926 0.093720
-0.014000 0.142243 0.094173
-0.014000 0.143610 0.093267
-0.013500 0.144979 0.092135
-0.013750 0.145665 0.091569
-0.014000 0.146351 0.091003
-0.014000 0.147726 0.089871
-0.013750 0.147038 0.090437
-0.013750 0.148414 0.089192
-0.013750 0.149790 0.087707
-0.013500 0.149103 0.088513
-0.013500 0.150470 0.086869
-0.013500 0.151830 0.084831
-0.013250 0.151150 0.085910
-0.013750 0.151152 0.086030
-0.013750 0.152512 0.083872
-0.013250 0.153874 0.081235
-0.013500 0.153195 0.082914
-0.014000 0.153196 0.083033
-0.013500 0.154554 0.079557
-0.013500 0.155918 0.075841
-0.014000 0.155921 0.076201
-0.013750 0.155236 0.077759
-0.013250 0.156465 0.049590
-0.013750 0.156599 0.073203
-0.013750 0.157885 0.049587
-0.014000 0.157178 0.050188
-0.013500 0.158592 0.048627
-0.013250 0.159302 0.047637
-0.013750 0.159309 0.048018
-0.013750 0.160726 0.046492
-0.014000 0.160019 0.047382
-0.014000 0.161438 0.045855
-0.013250 0.162141 0.044584
-0.013750 0.163572 0.043439
-0.013250 0.164998 0.041785
-0.014000 0.164287 0.042802
-0.014000 0.165718 0.041403
-0.013750 0.165001 0.042039
-0.013750 0.166435 0.040640
-0.013250 0.167867 0.038860
-0.014000 0.167150 0.039750
-0.013500 0.168586 0.038096
-0.013250 0.169303 0.036953
-0.013750 0.169304 0.037080
-0.013750 0.170743 0.035046
-0.014000 0.170023 0.036063
-0.014000 0.171463 0.033902
-0.014000 0.172908 0.031742
-0.013750 0.172185 0.032886
-0.013750 0.173633 0.030598
-0.014000 0.174358 0.029328
-0.014000 0.175812 0.026660
-0.013250 0.175085 0.028311
-0.013750 0.176540 0.024882
-0.013250 0.176541 0.025390
-0.014000 0.177271 0.023485
-0.013250 0.178004 0.022469
-0.012500 0.035424 0.068835
-0.013000 0.036841 0.069072
-0.012250 0.036333 0.070754
-0.012750 0.037549 0.069190
-0.012500 0.037001 0.070512
-0.013000 0.038165 0.068468
-0.012250 0.038992 0.069666
-0.013000 0.039504 0.067984
-0.012500 0.039608 0.068944
-0.012750 0.040686 0.059574
-0.013000 0.040052 0.060176
-0.012750 0.040252 0.068462
-0.012750 0.041983 0.058610
-0.012500 0.041334 0.059092
-0.012250 0.041565 0.067738
-0.013000 0.042593 0.057767
-0.013000 0.043868 0.056562
-0.012750 0.043230 0.057165
-0.012750 0.044481 0.055720
-0.012250 0.045684 0.053795
-0.012500 0.045082 0.054757
-0.012750 0.046977 0.052710
-0.013000 0.046349 0.053432
-0.013000 0.047630 0.052227
-0.012750 0.048272 0.051625
-0.012750 0.049630 0.051140
-0.013000 0.050309 0.050898
-0.012500 0.051692 0.050653
